# .PCD v0.7 - Point Cloud Data file format
VERSION 0.7
FIELDS x y z normal_x normal_y normal_z curvature xx xy xz zx zy zz a0 a1 a2 a3 a4
SIZE 4 4 4 4 4 4 4 4 4 4 4 4 4 4 4 4 4 4
TYPE F F F F F F F F F F F F F F F F F F
COUNT 1 1 1 1 1 1 1 1 1 1 1 1 1 1 1 1 1 1
WIDTH 192
HEIGHT 1
VIEWPOINT 0 0 0 1 0 0 0
POINTS 192
DATA ascii
-0.04575353990202076 -0.04405165286851127 0.15986694804629517 -0.09118794834006069 0.8512702412382116 0.5167434056273617 0 0.006872832895322081 0 0 0 0 0 0 -10 20 10 10
-0.044250453000702024 -0.050214577670560936 0.15134251862954068 -0.13625080131291947 0.6204649778625035 0.7723075444324413 0 0.006872832895322081 0 0 0 0 0 0 -10 20 20 20
-0.0425567770807057 -0.05362722618094037 0.14173720517614122 -0.16488823602412497 0.31482248106876154 0.9347185072705901 0 0.006872832895322081 0 0 0 0 0 0 -10 20 30 30
-0.04082851376320902 -0.05415602004087472 0.13193573684411009 -0.17364615520398188 -0.028792253226851233 0.9843871350929938 0 0.006872832895322081 0 0 0 0 0 0 -10 20 40 40
-0.04422902807669062 -0.05629636191529244 0.15122101184750814 -0.11547260011013316 0.7472195535621822 0.6544685097067205 0 0.006872832895322081 0 0 0 0 0 0 -10 30 10 10
-0.042562941521268265 -0.060862571140263444 0.14177216545583182 -0.1528912168191502 0.47485788778090116 0.8666800303638121 0 0.006872832895322081 0 0 0 0 0 0 -10 30 20 20
-0.04079209240024588 -0.06252969793159434 0.13172918103049153 -0.1718773355700853 0.1452213525772096 0.9743556604610933 0 0.006872832895322081 0 0 0 0 0 0 -10 30 30 30
-0.03907414020000997 -0.06132219490710627 0.12198618995032136 -0.17014095023630524 -0.20193102098619672 0.9645081298857759 0 0.006872832895322081 0 0 0 0 0 0 -10 30 40 40
-0.042358453855621474 -0.06683053449261107 0.1406124582753131 -0.13625080131291947 0.6204649778625031 0.7723075444324411 0 0.006872832895322081 0 0 0 0 0 0 -10 40 10 10
-0.040579990843001526 -0.06966128618381602 0.13052629332497903 -0.16488823602412483 0.3148224810687609 0.9347185072705892 0 0.006872832895322081 0 0 0 0 0 0 -10 40 20 20
-0.03878577487540245 -0.06953223645215066 0.12035078892746656 -0.17364615520398202 -0.02879225322685112 0.9843871350929946 0 0.006872832895322081 0 0 0 0 0 0 -10 40 30 30
-0.03713033290070571 -0.06662512591161321 0.11096231095293699 -0.16146822454627857 -0.3689342168549038 0.9153226583533959 0 0.006872832895322081 0 0 0 0 0 0 -10 40 40 40
-0.040198653689964295 -0.07533409509725394 0.1283636228618142 -0.15289121681915008 0.4748578877809007 0.8666800303638117 0 0.006872832895322081 0 0 0 0 0 0 -10 50 10 10
-0.03836185191883951 -0.07634337829698504 0.11794660237099255 -0.17187733557008508 0.14522135257720933 0.974355660461092 0 0.006872832895322081 0 0 0 0 0 0 -10 50 20 20
-0.03659878544892214 -0.07442207315311777 0.10794775555337262 -0.17014095023630532 -0.20193102098619656 0.9645081298857764 0 0.006872832895322081 0 0 0 0 0 0 -10 50 30 30
-0.0350561534664717 -0.06990368617923624 0.09919905483694066 -0.14789149451538258 -0.5247275332341959 0.8383251961593177 0 0.006872832895322081 0 0 0 0 0 0 -10 50 40 40
-0.03283711260268402 -0.044051652868511273 0.1609684869877799 -7.104779797376248e-05 0.8512702412382118 0.5247275332341956 0 0.006872832895322081 0 0 0 0 0 0 0 20 10 10
-0.03283711260268402 -0.05021457767056095 0.15231255450686573 -7.104779797377691e-05 0.6204649778625035 0.7842341608205362 0 0.006872832895322081 0 0 0 0 0 0 0 20 20 20
-0.03283711260268402 -0.053627226180940374 0.14255906361077977 -7.10477979737861e-05 0.31482248106876165 0.9491505745483794 0 0.006872832895322081 0 0 0 0 0 0 0 20 30 30
-0.03283711260268402 -0.05415602004087473 0.13260639183087994 -7.104779797378885e-05 -0.02879225322685122 0.9995854210150966 0 0.006872832895322081 0 0 0 0 0 0 0 20 40 40
-0.03283711260268402 -0.05629636191529244 0.1521891732868653 -7.104779797377027e-05 0.7472195535621823 0.6645772690411107 0 0.006872832895322081 0 0 0 0 0 0 0 30 10 10
-0.03283711260268402 -0.06086257114026346 0.14259456320913652 -7.104779797378224e-05 0.4748578877809012 0.8800624944650631 0 0.006872832895322081 0 0 0 0 0 0 0 30 20 20
-0.03283711260268402 -0.06252969793159435 0.13239664956089195 -7.104779797378836e-05 0.14522135257720967 0.9893991947174081 0 0.006872832895322081 0 0 0 0 0 0 0 30 30 30
-0.03283711260268402 -0.061322194907106276 0.12250335713872174 -7.104779797378774e-05 -0.20193102098619675 0.9793997501098723 0 0.006872832895322081 0 0 0 0 0 0 0 30 40 40
-0.03283711260268402 -0.06683053449261109 0.14141696567604287 -7.10477979737769e-05 0.6204649778625033 0.784234160820536 0 0.006872832895322081 0 0 0 0 0 0 0 40 10 10
-0.03283711260268402 -0.06966128618381603 0.1311752053736044 -7.104779797378606e-05 0.31482248106876104 0.9491505745483784 0 0.006872832895322081 0 0 0 0 0 0 0 40 20 20
-0.03283711260268402 -0.06953223645215068 0.12084272741900981 -7.104779797378889e-05 -0.028792253226851073 0.9995854210150976 0 0.006872832895322081 0 0 0 0 0 0 0 40 30 30
-0.03283711260268402 -0.06662512591161322 0.11130941703856931 -7.104779797378496e-05 -0.36893421685490374 0.9294555133977451 0 0.006872832895322081 0 0 0 0 0 0 0 40 40 40
-0.03283711260268402 -0.07533409509725394 0.12897917223256752 -7.104779797378221e-05 0.4748578877809008 0.8800624944650624 0 0.006872832895322081 0 0 0 0 0 0 0 50 10 10
-0.03283711260268402 -0.07634337829698505 0.11840145240962817 -7.10477979737883e-05 0.14522135257720925 0.9893991947174069 0 0.006872832895322081 0 0 0 0 0 0 0 50 20 20
-0.03283711260268402 -0.07442207315311777 0.10824835726284779 -7.104779797378777e-05 -0.20193102098619664 0.9793997501098726 0 0.006872832895322081 0 0 0 0 0 0 0 50 30 30
-0.03283711260268402 -0.06990368617923626 0.09936469373595887 -7.104779797378061e-05 -0.524727533234196 0.8512702412382114 0 0.006872832895322081 0 0 0 0 0 0 0 50 40 40
-0.01992563462726067 -0.04405165286851127 0.15981037701510173 0.09104801149550269 0.8512702412382116 0.5167680802686524 0 0.006872832895322081 0 0 0 0 0 0 10 20 10 10
-0.021428721528579414 -0.050214577670560936 0.15128594759834724 0.13611086446836143 0.6204649778625035 0.7723322190737321 0 0.006872832895322081 0 0 0 0 0 0 10 20 20 20
-0.023122397448575735 -0.05362722618094037 0.1416806341449478 0.1647482991795669 0.31482248106876154 0.9347431819118809 0 0.006872832895322081 0 0 0 0 0 0 10 20 30 30
-0.02485066076607242 -0.05415602004087472 0.13187916581291664 0.1735062183594238 -0.028792253226851233 0.9844118097342845 0 0.006872832895322081 0 0 0 0 0 0 10 20 40 40
-0.021450146452590812 -0.05629636191529244 0.1511644408163147 0.11533266326557516 0.7472195535621822 0.6544931843480113 0 0.006872832895322081 0 0 0 0 0 0 10 30 10 10
-0.02311623300801317 -0.060862571140263444 0.14171559442463838 0.1527512799745921 0.47485788778090116 0.8667047050051029 0 0.006872832895322081 0 0 0 0 0 0 10 30 20 20
-0.02488708212903556 -0.06252969793159434 0.13167260999929808 0.17173739872552723 0.1452213525772096 0.9743803351023842 0 0.006872832895322081 0 0 0 0 0 0 10 30 30 30
-0.02660503432927147 -0.06132219490710627 0.12192961891912793 0.17000101339174722 -0.20193102098619672 0.9645328045270667 0 0.006872832895322081 0 0 0 0 0 0 10 30 40 40
-0.02332072067365996 -0.06683053449261107 0.14055588724411966 0.1361108644683614 0.6204649778625031 0.7723322190737318 0 0.006872832895322081 0 0 0 0 0 0 10 40 10 10
-0.025099183686279912 -0.06966128618381602 0.1304697222937856 0.16474829917956677 0.3148224810687609 0.93474318191188 0 0.006872832895322081 0 0 0 0 0 0 10 40 20 20
-0.026893399653878994 -0.06953223645215066 0.12029421789627312 0.17350621835942395 -0.02879225322685112 0.9844118097342853 0 0.006872832895322081 0 0 0 0 0 0 10 40 30 30
-0.028548841628575714 -0.06662512591161321 0.11090573992174356 0.1613282877017205 -0.3689342168549038 0.9153473329946867 0 0.006872832895322081 0 0 0 0 0 0 10 40 40 40
-0.025480520839317147 -0.07533409509725394 0.12830705183062077 0.15275127997459204 0.4748578877809007 0.8667047050051024 0 0.006872832895322081 0 0 0 0 0 0 10 50 10 10
-0.027317322610441935 -0.07634337829698504 0.11789003133979913 0.171737398725527 0.14522135257720933 0.9743803351023829 0 0.006872832895322081 0 0 0 0 0 0 10 50 20 20
-0.0290803890803593 -0.07442207315311777 0.10789118452217919 0.17000101339174728 -0.20193102098619656 0.9645328045270671 0 0.006872832895322081 0 0 0 0 0 0 10 50 30 30
-0.030623021062809733 -0.06990368617923624 0.09914248380574724 0.14775155767082457 -0.5247275332341959 0.8383498708006084 0 0.006872832895322081 0 0 0 0 0 0 10 50 40 40
-0.04086508689032705 -0.04311036775724729 0.16158847458123554 -0.7085677067995589 0.6702410579223338 0.22070054349178234 0 0.0038903656545303832 0 0 0 0 0 0 -10 20 10 10
-0.03940903922579189 -0.0496195796375752 0.15333081793286044 -0.7448094651625935 0.5134006484103951 0.42623776880703673 0 0.0038903656545303832 0 0 0 0 0 0 -10 20 20 20
-0.037738999333155936 -0.053450280770246675 0.14385955105171785 -0.7695506419128066 0.29463654371356424 0.566551954706466 0 0.0038903656545303832 0 0 0 0 0 0 -10 20 30 30
-0.03600811797986615 -0.05441846948043887 0.1340432351008902 -0.7798070859932409 0.04033492347260609 0.6247191395537617 0 0.0038903656545303832 0 0 0 0 0 0 -10 20 40 40
-0.039366725122799644 -0.0555163705212611 0.15309084272984708 -0.7278799651005622 0.6009506437740526 0.3302258028900221 0 0.0038903656545303832 0 0 0 0 0 0 -10 30 10 10
-0.03773652133938419 -0.06047064518247203 0.14384549765069105 -0.7588418126930088 0.41025123413805137 0.5058191662428368 0 0.0038903656545303832 0 0 0 0 0 0 -10 30 20 20
-0.0359763433323447 -0.0625731094647636 0.13386303212007705 -0.7766105704650724 0.17006947100162523 0.6065907991527303 0 0.0038903656545303832 0 0 0 0 0 0 -10 30 30 30
-0.03424256349423247 -0.06179570785964998 0.1240302780449714 -0.7790430639905057 -0.0906251802956715 0.6203861554598603 0 0.0038903656545303832 0 0 0 0 0 0 -10 30 40 40
-0.03751704008071134 -0.06623553645962532 0.14260075757863286 -0.7448094651625933 0.5134006484103949 0.42623776880703657 0 0.0038903656545303832 0 0 0 0 0 0 -10 40 10 10
-0.035762213095451766 -0.06948434077312232 0.13264863920055567 -0.7695506419128061 0.2946365437135636 0.5665519547064654 0 0.0038903656545303832 0 0 0 0 0 0 -10 40 20 20
-0.03396537909205957 -0.06979468589171481 0.12245828718424666 -0.7798070859932414 0.04033492347260622 0.6247191395537622 0 0.0038903656545303832 0 0 0 0 0 0 -10 40 30 30
-0.032281380792171015 -0.06729531492568257 0.11290785824182153 -0.7743417188788044 -0.21883168381921922 0.5937235024001215 0 0.0038903656545303832 0 0 0 0 0 0 -10 40 40 40
-0.03537223350808022 -0.07494216913946253 0.13043695505667344 -0.7588418126930082 0.41025123413805104 0.5058191662428366 0 0.0038903656545303832 0 0 0 0 0 0 -10 50 10 10
-0.03354610285093833 -0.07638678983015429 0.12008045346057807 -0.7766105704650715 0.1700694710016249 0.6065907991527294 0 0.0038903656545303832 0 0 0 0 0 0 -10 50 20 20
-0.03176720874314464 -0.07489558610566148 0.10999184364802266 -0.7790430639905058 -0.09062518029567132 0.6203861554598605 0 0.0038903656545303832 0 0 0 0 0 0 -10 50 30 30
-0.030184159417677606 -0.07075018790077074 0.10101392478894342 -0.7658458986503616 -0.3403890973640947 0.5455413115958131 0 0.0038903656545303832 0 0 0 0 0 0 -10 50 40 40
-0.027723986230934514 -0.0431103677572473 0.1618149887093144 -0.6594787240028378 0.6702410579223339 0.34038909736409445 0 0.0038903656545303832 0 0 0 0 0 0 0 20 10 10
-0.027723986230934514 -0.04961957963757521 0.1534299443967391 -0.6594787240028379 0.5134006484103951 0.5490970656823604 0 0.0038903656545303832 0 0 0 0 0 0 0 20 20 20
-0.02772398623093451 -0.053450280770246675 0.1438125679573548 -0.6594787240028382 0.2946365437135643 0.6915758240697244 0 0.0038903656545303832 0 0 0 0 0 0 0 20 30 30
-0.027723986230934514 -0.05441846948043889 0.13384481951020585 -0.6594787240028379 0.04033492347260611 0.7506403315021456 0 0.0038903656545303832 0 0 0 0 0 0 0 20 40 40
-0.027723986230934514 -0.055516370521261106 0.15318626718940664 -0.659478724002838 0.6009506437740527 0.4516039604307565 0 0.0038903656545303832 0 0 0 0 0 0 0 30 10 10
-0.027723986230934514 -0.06047064518247204 0.14379829775996467 -0.659478724002838 0.4102512341380515 0.6299061344497279 0 0.0038903656545303832 0 0 0 0 0 0 0 30 20 20
-0.027723986230934507 -0.0625731094647636 0.13366183660794706 -0.6594787240028386 0.17006947100162526 0.7322323322296149 0 0.0038903656545303832 0 0 0 0 0 0 0 30 30 30
-0.027723986230934514 -0.061795707859649995 0.12367739645195679 -0.659478724002838 -0.0906251802956715 0.7462405041443207 0 0.0038903656545303832 0 0 0 0 0 0 0 30 40 40
-0.027723986230934514 -0.06623553645962535 0.14253435556591623 -0.6594787240028378 0.5134006484103949 0.5490970656823602 0 0.0038903656545303832 0 0 0 0 0 0 0 40 10 10
-0.027723986230934514 -0.06948434077312235 0.13242870972017945 -0.6594787240028379 0.2946365437135638 0.6915758240697237 0 0.0038903656545303832 0 0 0 0 0 0 0 40 20 20
-0.02772398623093451 -0.06979468589171484 0.12208115509833573 -0.6594787240028382 0.040334923472606275 0.7506403315021464 0 0.0038903656545303832 0 0 0 0 0 0 0 40 30 30
-0.027723986230934514 -0.06729531492568258 0.11238339539527341 -0.6594787240028379 -0.21883168381921916 0.719166536683985 0 0.0038903656545303832 0 0 0 0 0 0 0 40 40 40
-0.027723986230934514 -0.07494216913946253 0.13018290678339567 -0.6594787240028377 0.4102512341380511 0.6299061344497273 0 0.0038903656545303832 0 0 0 0 0 0 0 50 10 10
-0.027723986230934514 -0.07638678983015432 0.11966663945668327 -0.6594787240028378 0.1700694710016249 0.732232332229614 0 0.0038903656545303832 0 0 0 0 0 0 0 50 20 20
-0.02772398623093451 -0.0748955861056615 0.10942239657608284 -0.6594787240028382 -0.0906251802956714 0.746240504144321 0 0.0038903656545303832 0 0 0 0 0 0 0 50 30 30
-0.027723986230934514 -0.07075018790077076 0.10030597884722284 -0.6594787240028378 -0.3403890973640947 0.6702410579223335 0 0.0038903656545303832 0 0 0 0 0 0 0 50 40 40
-0.014743194652894191 -0.04311036775724729 0.15975613339677208 -0.5903518138896263 0.6702410579223338 0.44973510075819295 0 0.0038903656545303832 0 0 0 0 0 0 10 20 10 10
-0.016199242317429356 -0.0496195796375752 0.15149847674839695 -0.5541100555265923 0.5134006484103951 0.6552723260734473 0 0.0038903656545303832 0 0 0 0 0 0 10 20 20 20
-0.017869282210065302 -0.053450280770246675 0.14202720986725437 -0.5293688787763801 0.29463654371356424 0.7955865119728767 0 0.0038903656545303832 0 0 0 0 0 0 10 20 30 30
-0.019600163563355096 -0.05441846948043887 0.1322108939164267 -0.5191124346959448 0.04033492347260609 0.8537536968201722 0 0.0038903656545303832 0 0 0 0 0 0 10 20 40 40
-0.016241556420421598 -0.0555163705212611 0.15125850154538362 -0.5710395555886235 0.6009506437740526 0.5592603601564327 0 0.0038903656545303832 0 0 0 0 0 0 10 30 10 10
-0.01787176020383705 -0.06047064518247203 0.14201315646622756 -0.5400777079961775 0.41025123413805137 0.7348537235092475 0 0.0038903656545303832 0 0 0 0 0 0 10 30 20 20
-0.019631938210876533 -0.0625731094647636 0.13203069093561356 -0.5223089502241146 0.17006947100162523 0.835625356419141 0 0.0038903656545303832 0 0 0 0 0 0 10 30 30 30
-0.02136571804898877 -0.06179570785964998 0.12219793686050792 -0.5198764566986805 -0.0906251802956715 0.849420712726271 0 0.0038903656545303832 0 0 0 0 0 0 10 30 40 40
-0.018091241462509906 -0.06623553645962532 0.14076841639416937 -0.5541100555265921 0.5134006484103949 0.6552723260734472 0 0.0038903656545303832 0 0 0 0 0 0 10 40 10 10
-0.01984606844776948 -0.06948434077312232 0.13081629801609218 -0.5293688787763797 0.2946365437135636 0.7955865119728759 0 0.0038903656545303832 0 0 0 0 0 0 10 40 20 20
-0.021642902451161666 -0.06979468589171481 0.12062594599978317 -0.5191124346959451 0.04033492347260622 0.8537536968201729 0 0.0038903656545303832 0 0 0 0 0 0 10 40 30 30
-0.023326900751050227 -0.06729531492568257 0.11107551705735805 -0.5245778018103814 -0.21883168381921922 0.822758059666532 0 0.0038903656545303832 0 0 0 0 0 0 10 40 40 40
-0.020236048035141025 -0.07494216913946253 0.12860461387220995 -0.540077707996177 0.41025123413805104 0.7348537235092472 0 0.0038903656545303832 0 0 0 0 0 0 10 50 10 10
-0.022062178692282913 -0.07638678983015429 0.11824811227611458 -0.522308950224114 0.1700694710016249 0.8356253564191399 0 0.0038903656545303832 0 0 0 0 0 0 10 50 20 20
-0.0238410728000766 -0.07489558610566148 0.10815950246355918 -0.5198764566986805 -0.09062518029567132 0.8494207127262713 0 0.0038903656545303832 0 0 0 0 0 0 10 50 30 30
-0.025424122125543635 -0.07075018790077074 0.09918158360447993 -0.533073622038824 -0.3403890973640947 0.7745758688622237 0 0.0038903656545303832 0 0 0 0 0 0 10 50 40 40
-0.050805131299731736 -0.04300357930994915 0.15916748252848906 0.5016766817564919 0.7116982864365212 0.49173785449072765 0 0.004227773909124492 0 0 0 0 0 0 -10 20 10 10
-0.04936231815599159 -0.04929413379261327 0.15098488257729006 0.4635671662440901 0.5329436406125265 0.7078676569706513 0 0.004227773909124492 0 0 0 0 0 0 -10 20 20 20
-0.047717700964571626 -0.0529454310995925 0.14165779499935924 0.4383723841185363 0.28990812632021556 0.8507543667885363 0 0.004227773909124492 0 0 0 0 0 0 -10 20 30 30
-0.046021364139953023 -0.05379510830516096 0.13203739080595173 0.42913119793955407 0.01190541340542377 0.9031637379570985 0 0.004227773909124492 0 0 0 0 0 0 -10 20 40 40
-0.04931172584400633 -0.055296919419795865 0.15069795931811564 0.48126408163550444 0.6319212674971798 0.607503462448011 0 0.004227773909124492 0 0 0 0 0 0 -10 30 10 10
-0.04770114884657665 -0.06004909310132904 0.1415639232734982 0.4491236474013463 0.41777279089035646 0.7897809227948113 0 0.004227773909124492 0 0 0 0 0 0 -10 30 20 20
-0.045971417000071416 -0.062000301806374815 0.13175412649959925 0.43164004809010664 0.15323475003242507 0.8889353417101282 0 0.004227773909124492 0 0 0 0 0 0 -10 30 30 30
-0.04427523044074401 -0.061140733681357785 0.12213457450300583 0.4309220638091649 -0.12978566318347093 0.8930072329094019 0 0.004227773909124492 0 0 0 0 0 0 -10 30 40 40
-0.04747031901091104 -0.06591009061466341 0.1402548222230625 0.46356716624409 0.5329436406125262 0.7078676569706511 0 0.004227773909124492 0 0 0 0 0 0 -10 40 10 10
-0.04574091472686744 -0.06897949110246816 0.13044688314819705 0.43837238411853596 0.28990812632021495 0.8507543667885354 0 0.004227773909124492 0 0 0 0 0 0 -10 40 20 20
-0.04397862525214645 -0.0691713247164369 0.12045244288930822 0.4291311979395544 0.011905413405423887 0.9031637379570991 0 0.004227773909124492 0 0 0 0 0 0 -10 40 30 30
-0.04233412672840359 -0.06662862880335056 0.1111260283092172 0.43695823114571203 -0.26753326807125044 0.8587744268334705 0 0.004227773909124492 0 0 0 0 0 0 -10 40 40 40
-0.04533686101527268 -0.07452061705831954 0.1281553806794806 0.449123647401346 0.41777279089035607 0.7897809227948109 0 0.004227773909124492 0 0 0 0 0 0 -10 50 10 10
-0.043541176518665035 -0.07581398217176552 0.11797154784010028 0.43164004809010614 0.1532347500324248 0.888935341710127 0 0.004227773909124492 0 0 0 0 0 0 -10 50 20 20
-0.04179987568965618 -0.07424061192736928 0.10809614010605709 0.4309220638091649 -0.12978566318347073 0.8930072329094022 0 0.004227773909124492 0 0 0 0 0 0 -10 50 30 30
-0.04025703245698539 -0.07009204675486654 0.09934624133009107 0.4470562940591229 -0.39715200998705036 0.8015054662192876 0 0.004227773909124492 0 0 0 0 0 0 -10 50 40 40
-0.03793341988870746 -0.043003579309949164 0.1611568475634102 0.5794444680213925 0.7116982864365214 0.39715200998705014 0 0.004227773909124492 0 0 0 0 0 0 0 20 10 10
-0.03793341988870746 -0.049294133792613284 0.15284801781854776 0.5794444680213926 0.5329436406125265 0.6166159630467746 0 0.004227773909124492 0 0 0 0 0 0 0 20 20 20
-0.03793341988870746 -0.0529454310995925 0.14337704488052785 0.5794444680213929 0.2899081263202156 0.761706930680651 0 0.004227773909124492 0 0 0 0 0 0 0 20 30 30
-0.03793341988870746 -0.053795108305160974 0.13360823044544465 0.5794444680213926 0.011905413405423785 0.8149248008774065 0 0.004227773909124492 0 0 0 0 0 0 0 20 40 40
-0.03793341988870746 -0.05529691941979587 0.15255666830561304 0.5794444680213927 0.6319212674971799 0.514703489048008 0 0.004227773909124492 0 0 0 0 0 0 0 30 10 10
-0.03793341988870746 -0.060049093101329054 0.14328172503198489 0.5794444680213927 0.41777279089035657 0.6997928730310976 0 0.004227773909124492 0 0 0 0 0 0 0 30 20 20
-0.037933419888707465 -0.06200030180637482 0.13332059633057697 0.5794444680213932 0.15323475003242512 0.8004769086837775 0 0.004227773909124492 0 0 0 0 0 0 0 30 30 30
-0.03793341988870746 -0.06114073368135779 0.12355264723881736 0.5794444680213927 -0.12978566318347093 0.8046116153682236 0 0.004227773909124492 0 0 0 0 0 0 0 30 40 40
-0.03793341988870746 -0.06591009061466342 0.1419524289877249 0.5794444680213925 0.5329436406125263 0.6166159630467745 0 0.004227773909124492 0 0 0 0 0 0 0 40 10 10
-0.03793341988870746 -0.06897949110246818 0.1319931866433525 0.5794444680213926 0.2899081263202151 0.7617069306806503 0 0.004227773909124492 0 0 0 0 0 0 0 40 20 20
-0.03793341988870746 -0.06917132471643692 0.1218445660335745 0.5794444680213929 0.01190541340542394 0.8149248008774073 0 0.004227773909124492 0 0 0 0 0 0 0 40 30 30
-0.03793341988870746 -0.06662862880335058 0.11237427647547087 0.5794444680213926 -0.2675332680712504 0.7698507130791991 0 0.004227773909124492 0 0 0 0 0 0 0 40 40 40
-0.03793341988870745 -0.07452061705831954 0.1296663340554159 0.5794444680213925 0.41777279089035624 0.6997928730310972 0 0.004227773909124492 0 0 0 0 0 0 0 50 10 10
-0.03793341988870746 -0.07581398217176552 0.11932539917931319 0.5794444680213926 0.15323475003242473 0.8004769086837766 0 0.004227773909124492 0 0 0 0 0 0 0 50 20 20
-0.03793341988870746 -0.07424061192736929 0.10929764736294341 0.5794444680213929 -0.12978566318347085 0.8046116153682238 0 0.004227773909124492 0 0 0 0 0 0 0 50 30 30
-0.03793341988870745 -0.07009204675486655 0.10041276729452099 0.5794444680213926 -0.39715200998705047 0.711698286436521 0 0.004227773909124492 0 0 0 0 0 0 0 50 40 40
-0.024911809083566657 -0.04300357930994915 0.16088084044339296 0.6396061273385115 0.7116982864365212 0.29049890262853023 0 0.004227773909124492 0 0 0 0 0 0 10 20 10 10
-0.02635462222730681 -0.04929413379261327 0.15269824049219397 0.6777156428509133 0.5329436406125265 0.5066287051084539 0 0.004227773909124492 0 0 0 0 0 0 10 20 20 20
-0.027999239418726785 -0.0529454310995925 0.14337115291426314 0.7029104249764679 0.28990812632021556 0.6495154149263389 0 0.004227773909124492 0 0 0 0 0 0 10 20 30 30
-0.02969557624334538 -0.05379510830516096 0.13375074872085566 0.7121516111554494 0.01190541340542377 0.701924786094901 0 0.004227773909124492 0 0 0 0 0 0 10 20 40 40
-0.026405214539292073 -0.055296919419795865 0.15241131723301954 0.6600187274594993 0.6319212674971798 0.40626451058581364 0 0.004227773909124492 0 0 0 0 0 0 10 30 10 10
-0.028015791536721752 -0.06004909310132904 0.1432772811884021 0.6921591616936577 0.41777279089035646 0.5885419709326138 0 0.004227773909124492 0 0 0 0 0 0 10 30 20 20
-0.029745523383226995 -0.062000301806374815 0.13346748441450315 0.7096427610048982 0.15323475003242507 0.6876963898479307 0 0.004227773909124492 0 0 0 0 0 0 10 30 30 30
-0.0314417099425544 -0.061140733681357785 0.12384793241790973 0.710360745285839 -0.12978566318347093 0.6917682810472043 0 0.004227773909124492 0 0 0 0 0 0 10 30 40 40
-0.028246621372387357 -0.06591009061466341 0.1419681801379664 0.6777156428509132 0.5329436406125262 0.5066287051084538 0 0.004227773909124492 0 0 0 0 0 0 10 40 10 10
-0.029976025656430955 -0.06897949110246816 0.13216024106310095 0.7029104249764674 0.28990812632021495 0.6495154149263381 0 0.004227773909124492 0 0 0 0 0 0 10 40 20 20
-0.03173831513115196 -0.0691713247164369 0.12216580080421212 0.71215161115545 0.011905413405423887 0.7019247860949016 0 0.004227773909124492 0 0 0 0 0 0 10 40 30 30
-0.03338281365489481 -0.06662862880335056 0.1128393862241211 0.7043245779492915 -0.26753326807125044 0.6575354749712731 0 0.004227773909124492 0 0 0 0 0 0 10 40 40 40
-0.030380079368025725 -0.07452061705831954 0.1298687385943845 0.6921591616936572 0.41777279089035607 0.5885419709326135 0 0.004227773909124492 0 0 0 0 0 0 10 50 10 10
-0.03217576386463336 -0.07581398217176552 0.11968490575500419 0.7096427610048973 0.1532347500324248 0.6876963898479297 0 0.004227773909124492 0 0 0 0 0 0 10 50 20 20
-0.03391706469364223 -0.07424061192736928 0.10980949802096099 0.7103607452858391 -0.12978566318347073 0.6917682810472047 0 0.004227773909124492 0 0 0 0 0 0 10 50 30 30
-0.03545990792631301 -0.07009204675486654 0.10105959924499497 0.6942265150358806 -0.39715200998705036 0.6002665143570903 0 0.004227773909124492 0 0 0 0 0 0 10 50 40 40
-0.04675084886301897 -0.046995924934813575 0.16566321264634673 -0.07510474056680189 0.9022142567234359 0.42469842685609005 0 0.006274368475124737 0 0 0 0 0 0 -10 20 10 10
-0.045011306731146256 -0.054992841298047976 0.1557977789793979 -0.12417174105515126 0.7002948599947139 0.702971214668839 0 0.006274368475124737 0 0 0 0 0 0 -10 20 20 20
-0.0429865126628014 -0.05966315225647661 0.14431460119112396 -0.15828740918910603 0.4139095678992314 0.8964507831210481 0 0.006274368475124737 0 0 0 0 0 0 -10 20 30 30
-0.0408724060146359 -0.06072158679896898 0.13232490659265 -0.17333689189807286 0.07760067326046821 0.9818006408030624 0 0.006274368475124737 0 0 0 0 0 0 -10 20 40 40
-0.04512204064879737 -0.060217196042648066 0.1564257822333877 -0.1011720454843409 0.8136152014525646 0.5725334593213605 0 0.006274368475124737 0 0 0 0 0 0 -10 30 10 10
-0.04316778953680724 -0.06635307914547876 0.14534267343099044 -0.1434049931677214 0.5656964135822219 0.812048407706982 0 0.006274368475124737 0 0 0 0 0 0 -10 30 20 20
-0.041032929533039275 -0.0689276435179723 0.13323528070419213 -0.16836679443936128 0.24954628944396995 0.9536138174437434 0 0.006274368475124737 0 0 0 0 0 0 -10 30 30 30
-0.038919025208567534 -0.06785589141330922 0.1212467335404043 -0.17304668766894898 -0.09670280011221669 0.9801548108344563 0 0.006274368475124737 0 0 0 0 0 0 -10 30 40 40
-0.043119307586065705 -0.0716087981200981 0.14506771862517032 -0.12417174105515126 0.7002948599947135 0.7029712146688389 0 0.006274368475124737 0 0 0 0 0 0 -10 40 10 10
-0.041009726425097225 -0.07569721225935225 0.13310368933996178 -0.15828740918910592 0.4139095678992306 0.8964507831210472 0 0.006274368475124737 0 0 0 0 0 0 -10 40 20 20
-0.03882966712682932 -0.07609780321024492 0.12073995867600648 -0.17333689189807294 0.0776006732604684 0.9818006408030632 0 0.006274368475124737 0 0 0 0 0 0 -10 40 30 30
-0.03678019503926323 -0.07292842910379385 0.10911682488597896 -0.16750499946064082 -0.2680680078374701 0.9487263352486883 0 0.006274368475124737 0 0 0 0 0 0 -10 40 40 40
-0.04080350170550327 -0.08082460310246925 0.13193413083697283 -0.14340499316772132 0.5656964135822213 0.8120484077069815 0 0.006274368475124737 0 0 0 0 0 0 -10 50 10 10
-0.0386026890516329 -0.082741323883363 0.11945270204469315 -0.16836679443936106 0.2495462894439695 0.9536138174437422 0 0.006274368475124737 0 0 0 0 0 0 -10 50 20 20
-0.036443670457479704 -0.08095576965932072 0.10720829914345557 -0.17304668766894907 -0.09670280011221646 0.9801548108344568 0 0.006274368475124737 0 0 0 0 0 0 -10 50 30 30
-0.03452090277911704 -0.07578507337952546 0.09630374176580885 -0.15688020866512853 -0.43128810479353863 0.8884701523728578 0 0.006274368475124737 0 0 0 0 0 0 -10 50 40 40
-0.03281275941454932 -0.04699592493481359 0.16684987418806912 -0.00021562291658485828 0.9022142567234361 0.43128810479353835 0 0.006274368475124737 0 0 0 0 0 0 0 20 10 10
-0.03281275941454932 -0.05499284129804799 0.15683225030485573 -0.000215622916584874 0.700294859994714 0.713853698902239 0 0.006274368475124737 0 0 0 0 0 0 0 20 20 20
-0.03281275941454932 -0.059663152256476615 0.1451719259896271 -0.00021562291658488503 0.41390956789923145 0.9103180015647816 0 0.006274368475124737 0 0 0 0 0 0 0 20 30 30
-0.03281275941454932 -0.060721586798968996 0.13299727102595385 -0.00021562291658488972 0.07760067326046824 0.99698451837576 0 0.006274368475124737 0 0 0 0 0 0 0 20 40 40
-0.03281275941454932 -0.060217196042648066 0.15746994152130783 -0.00021562291658486666 0.8136152014525648 0.581403730927767 0 0.006274368475124737 0 0 0 0 0 0 0 30 10 10
-0.03281275941454932 -0.06635307914547878 0.14621585790092848 -0.0002156229165848802 0.5656964135822219 0.8246135834629679 0 0.006274368475124737 0 0 0 0 0 0 0 30 20 20
-0.03281275941454932 -0.06892764351797231 0.13392168912558555 -0.00021562291658488834 0.24954628944397 0.9683628678321847 0 0.006274368475124737 0 0 0 0 0 0 0 30 30 30
-0.03281275941454932 -0.06785589141330924 0.12174819929762803 -0.0002156229165848897 -0.09670280011221666 0.9953132988269985 0 0.006274368475124737 0 0 0 0 0 0 0 30 40 40
-0.03281275941454932 -0.07160879812009813 0.14593666147403286 -0.00021562291658487398 0.7002948599947136 0.7138536989022389 0 0.006274368475124737 0 0 0 0 0 0 0 40 10 10
-0.03281275941454932 -0.07569721225935228 0.13378806775245172 -0.0002156229165848849 0.4139095678992308 0.9103180015647808 0 0.006274368475124737 0 0 0 0 0 0 0 40 20 20
-0.03281275941454932 -0.07609780321024494 0.12123360661408372 -0.00021562291658488986 0.07760067326046849 0.9969845183757609 0 0.006274368475124737 0 0 0 0 0 0 0 40 30 30
-0.03281275941454932 -0.07292842910379387 0.10943116725018134 -0.00021562291658488788 -0.26806800783747003 0.9633999883462083 0 0.006274368475124737 0 0 0 0 0 0 0 40 40 40
-0.03281275941454932 -0.08082460310246925 0.13260046692435948 -0.0002156229165848801 0.5656964135822214 0.8246135834629671 0 0.006274368475124737 0 0 0 0 0 0 0 50 10 10
-0.03281275941454932 -0.08274132388336301 0.11992649197432176 -0.0002156229165848881 0.24954628944396948 0.9683628678321835 0 0.006274368475124737 0 0 0 0 0 0 0 50 20 20
-0.03281275941454932 -0.08095576965932073 0.10749319942175409 -0.00021562291658488978 -0.09670280011221655 0.9953132988269987 0 0.006274368475124737 0 0 0 0 0 0 0 50 30 30
-0.03281275941454932 -0.07578507337952547 0.09642042166965656 -0.00021562291658488444 -0.43128810479353874 0.9022142567234356 0 0.006274368475124737 0 0 0 0 0 0 0 50 40 40
-0.01888035924929122 -0.046995924934813575 0.16559818384167335 0.07468004632684214 0.9022142567234359 0.42477331190914647 0 0.006274368475124737 0 0 0 0 0 0 10 20 10 10
-0.02061990138116395 -0.054992841298047976 0.15573275017472452 0.12374704681519148 0.7002948599947139 0.7030460997218955 0 0.006274368475124737 0 0 0 0 0 0 10 20 20 20
-0.022644695449508798 -0.05966315225647661 0.1442495723864506 0.15786271494914622 0.4139095678992314 0.8965256681741044 0 0.006274368475124737 0 0 0 0 0 0 10 20 30 30
-0.024758802097674303 -0.06072158679896898 0.13225987778797663 0.17291219765811303 0.07760067326046821 0.9818755258561188 0 0.006274368475124737 0 0 0 0 0 0 10 20 40 40
-0.02050916746351283 -0.060217196042648066 0.15636075342871433 0.10074735124438118 0.8136152014525646 0.5726083443744169 0 0.006274368475124737 0 0 0 0 0 0 10 30 10 10
-0.02246341857550295 -0.06635307914547876 0.14527764462631707 0.1429802989277616 0.5656964135822219 0.8121232927600383 0 0.006274368475124737 0 0 0 0 0 0 10 30 20 20
-0.024598278579270928 -0.0689276435179723 0.13317025189951875 0.16794210019940145 0.24954628944396995 0.9536887024967998 0 0.006274368475124737 0 0 0 0 0 0 10 30 30 30
-0.026712182903742665 -0.06785589141330922 0.12118170473573094 0.17262199342898923 -0.09670280011221669 0.9802296958875126 0 0.006274368475124737 0 0 0 0 0 0 10 30 40 40
-0.022511900526244497 -0.0716087981200981 0.14500268982049694 0.12374704681519147 0.7002948599947135 0.7030460997218954 0 0.006274368475124737 0 0 0 0 0 0 10 40 10 10
-0.02462148168721297 -0.07569721225935225 0.1330386605352884 0.1578627149491461 0.4139095678992306 0.8965256681741036 0 0.006274368475124737 0 0 0 0 0 0 10 40 20 20
-0.026801540985480876 -0.07609780321024492 0.12067492987133312 0.17291219765811314 0.0776006732604684 0.9818755258561195 0 0.006274368475124737 0 0 0 0 0 0 10 40 30 30
-0.028851013073046963 -0.07292842910379385 0.10905179608130558 0.16708030522068104 -0.2680680078374701 0.9488012203017447 0 0.006274368475124737 0 0 0 0 0 0 10 40 40 40
-0.024827706406806926 -0.08082460310246925 0.13186910203229946 0.1429802989277615 0.5656964135822213 0.8121232927600378 0 0.006274368475124737 0 0 0 0 0 0 10 50 10 10
-0.0270285190606773 -0.082741323883363 0.11938767324001978 0.16794210019940126 0.2495462894439695 0.9536887024967986 0 0.006274368475124737 0 0 0 0 0 0 10 50 20 20
-0.029187537654830495 -0.08095576965932072 0.1071432703387822 0.17262199342898926 -0.09670280011221646 0.9802296958875131 0 0.006274368475124737 0 0 0 0 0 0 10 50 30 30
-0.03111030533319316 -0.07578507337952546 0.09623871296113548 0.15645551442516878 -0.43128810479353863 0.8885450374259141 0 0.006274368475124737 0 0 0 0 0 0 10 50 40 40
