# .PCD v0.7 - Point Cloud Data file format
VERSION 0.7
FIELDS x y z normal_x normal_y normal_z curvature xx xy xz zx zy zz a0 a1 a2 a3 a4
SIZE 4 4 4 4 4 4 4 4 4 4 4 4 4 4 4 4 4 4
TYPE F F F F F F F F F F F F F F F F F F
COUNT 1 1 1 1 1 1 1 1 1 1 1 1 1 1 1 1 1 1
WIDTH 192
HEIGHT 1
VIEWPOINT 0 0 0 1 0 0 0
POINTS 192
DATA ascii
0.024074367767742213 -0.04405165286851127 0.1722103792961809 0.09104801149550273 0.8512702412382116 0.5167680802686524 0 0.006872832895322081 0 0 0 0 0 -10 20 10 10 0
0.022571280866423467 -0.050214577670560936 0.16368594987942642 0.1361108644683615 0.6204649778625035 0.7723322190737321 0 0.006872832895322081 0 0 0 0 0 -10 20 20 20 0
0.02087760494642715 -0.05362722618094037 0.154080636426027 0.164748299179567 0.31482248106876154 0.9347431819118809 0 0.006872832895322081 0 0 0 0 0 -10 20 30 30 0
0.019149341628930464 -0.05415602004087472 0.14427916809399582 0.17350621835942387 -0.028792253226851233 0.9844118097342845 0 0.006872832895322081 0 0 0 0 0 -10 20 40 40 0
0.022549855942412073 -0.05629636191529244 0.1635644430973939 0.11533266326557517 0.7472195535621822 0.6544931843480113 0 0.006872832895322081 0 0 0 0 0 -10 30 10 10 0
0.020883769386989708 -0.060862571140263444 0.15411559670571756 0.15275127997459217 0.47485788778090116 0.8667047050051029 0 0.006872832895322081 0 0 0 0 0 -10 30 20 20 0
0.01911292026596732 -0.06252969793159434 0.14407261228037727 0.1717373987255273 0.1452213525772096 0.9743803351023842 0 0.006872832895322081 0 0 0 0 0 -10 30 30 30 0
0.017394968065731414 -0.061322194907106276 0.13432962120020714 0.17000101339174722 -0.20193102098619664 0.9645328045270666 0 0.006872832895322081 0 0 0 0 0 -10 30 40 40 0
0.020679281721342924 -0.06683053449261107 0.15295588952519887 0.1361108644683615 0.6204649778625031 0.7723322190737318 0 0.006872832895322081 0 0 0 0 0 -10 40 10 10 0
0.018900818708722972 -0.06966128618381602 0.1428697245748648 0.16474829917956682 0.31482248106876093 0.9347431819118801 0 0.006872832895322081 0 0 0 0 0 -10 40 20 20 0
0.01710660274112389 -0.06953223645215066 0.13269422017735233 0.173506218359424 -0.02879225322685105 0.9844118097342853 0 0.006872832895322081 0 0 0 0 0 -10 40 30 30 0
0.015451160766427163 -0.06662512591161321 0.12330574220282277 0.1613282877017206 -0.36893421685490363 0.9153473329946867 0 0.006872832895322081 0 0 0 0 0 -10 40 40 40 0
0.018519481555685738 -0.07533409509725393 0.14070705411169995 0.15275127997459212 0.4748578877809007 0.8667047050051024 0 0.006872832895322081 0 0 0 0 0 -10 50 10 10 0
0.01668267978456095 -0.07634337829698504 0.13029003362087835 0.17173739872552707 0.1452213525772093 0.9743803351023829 0 0.006872832895322081 0 0 0 0 0 -10 50 20 20 0
0.014919613314643582 -0.07442207315311777 0.1202911868032584 0.1700010133917473 -0.20193102098619656 0.9645328045270671 0 0.006872832895322081 0 0 0 0 0 -10 50 30 30 0
0.01337698133219315 -0.06990368617923624 0.11154248608682642 0.14775155767082457 -0.5247275332341959 0.8383498708006084 0 0.006872832895322081 0 0 0 0 0 -10 50 40 40 0
0.011162889792318862 -0.04405165286851128 0.17336848926885912 -7.104779797373335e-05 0.8512702412382118 0.5247275332341957 0 0.006872832895322081 0 0 0 0 0 0 20 10 10 0
0.011162889792318862 -0.050214577670560964 0.1647125567879449 -7.104779797373337e-05 0.6204649778625035 0.7842341608205362 0 0.006872832895322081 0 0 0 0 0 0 20 20 20 0
0.011162889792318862 -0.053627226180940374 0.15495906589185898 -7.104779797373341e-05 0.3148224810687616 0.9491505745483794 0 0.006872832895322081 0 0 0 0 0 0 20 30 30 0
0.011162889792318862 -0.05415602004087473 0.14500639411195915 -7.104779797373337e-05 -0.02879225322685122 0.9995854210150966 0 0.006872832895322081 0 0 0 0 0 0 20 40 40 0
0.011162889792318862 -0.05629636191529244 0.1645891755679445 -7.104779797373338e-05 0.7472195535621823 0.6645772690411109 0 0.006872832895322081 0 0 0 0 0 0 30 10 10 0
0.011162889792318862 -0.06086257114026346 0.15499456549021573 -7.104779797373338e-05 0.4748578877809012 0.8800624944650632 0 0.006872832895322081 0 0 0 0 0 0 30 20 20 0
0.011162889792318862 -0.06252969793159435 0.14479665184197113 -7.104779797373344e-05 0.14522135257720967 0.9893991947174081 0 0.006872832895322081 0 0 0 0 0 0 30 30 30 0
0.011162889792318862 -0.061322194907106276 0.13490335941980094 -7.104779797373338e-05 -0.20193102098619675 0.9793997501098723 0 0.006872832895322081 0 0 0 0 0 0 30 40 40 0
0.011162889792318862 -0.06683053449261109 0.15381696795712207 -7.104779797373335e-05 0.6204649778625033 0.784234160820536 0 0.006872832895322081 0 0 0 0 0 0 40 10 10 0
0.011162889792318862 -0.06966128618381603 0.14357520765468357 -7.104779797373337e-05 0.31482248106876104 0.9491505745483784 0 0.006872832895322081 0 0 0 0 0 0 40 20 20 0
0.011162889792318862 -0.06953223645215068 0.133242729700089 -7.104779797373341e-05 -0.028792253226851017 0.9995854210150976 0 0.006872832895322081 0 0 0 0 0 0 40 30 30 0
0.011162889792318862 -0.06662512591161322 0.12370941931964852 -7.104779797373337e-05 -0.36893421685490374 0.9294555133977451 0 0.006872832895322081 0 0 0 0 0 0 40 40 40 0
0.011162889792318862 -0.07533409509725394 0.14137917451364673 -7.104779797373335e-05 0.4748578877809008 0.8800624944650627 0 0.006872832895322081 0 0 0 0 0 0 50 10 10 0
0.011162889792318862 -0.07634337829698505 0.13080145469070736 -7.104779797373337e-05 0.14522135257720925 0.9893991947174069 0 0.006872832895322081 0 0 0 0 0 0 50 20 20 0
0.011162889792318862 -0.07442207315311777 0.12064835954392697 -7.104779797373341e-05 -0.20193102098619664 0.9793997501098726 0 0.006872832895322081 0 0 0 0 0 0 50 30 30 0
0.011162889792318862 -0.06990368617923626 0.11176469601703808 -7.104779797373337e-05 -0.524727533234196 0.8512702412382114 0 0.006872832895322081 0 0 0 0 0 0 50 40 40 0
-0.0017535375070178837 -0.04405165286851127 0.17226695032737435 -0.09118794834006068 0.8512702412382116 0.5167434056273617 0 0.006872832895322081 0 0 0 0 0 10 20 10 10 0
-0.00025045060569913987 -0.050214577670560936 0.16374252091061986 -0.13625080131291945 0.6204649778625035 0.7723075444324413 0 0.006872832895322081 0 0 0 0 0 10 20 20 20 0
0.0014432253142971794 -0.05362722618094037 0.15413720745722043 -0.16488823602412495 0.31482248106876154 0.9347185072705901 0 0.006872832895322081 0 0 0 0 0 10 20 30 30 0
0.003171488631793865 -0.05415602004087472 0.14433573912518927 -0.17364615520398183 -0.028792253226851233 0.9843871350929938 0 0.006872832895322081 0 0 0 0 0 10 20 40 40 0
-0.00022902568168774542 -0.05629636191529244 0.16362101412858734 -0.11547260011013313 0.7472195535621822 0.6544685097067205 0 0.006872832895322081 0 0 0 0 0 10 30 10 10 0
0.0014370608737346191 -0.060862571140263444 0.154172167736911 -0.15289121681915013 0.47485788778090116 0.8666800303638121 0 0.006872832895322081 0 0 0 0 0 10 30 20 20 0
0.003207909994757007 -0.06252969793159434 0.1441291833115707 -0.17187733557008525 0.1452213525772096 0.9743556604610933 0 0.006872832895322081 0 0 0 0 0 10 30 30 30 0
0.0049258621949929155 -0.061322194907106276 0.13438619223140058 -0.17014095023630518 -0.20193102098619664 0.9645081298857758 0 0.006872832895322081 0 0 0 0 0 10 30 40 40 0
0.0016415485393814055 -0.06683053449261107 0.1530124605563923 -0.13625080131291945 0.6204649778625031 0.7723075444324411 0 0.006872832895322081 0 0 0 0 0 10 40 10 10 0
0.0034200115520013545 -0.06966128618381602 0.14292629560605824 -0.16488823602412478 0.31482248106876093 0.9347185072705894 0 0.006872832895322081 0 0 0 0 0 10 40 20 20 0
0.005214227519600439 -0.06953223645215066 0.13275079120854577 -0.17364615520398197 -0.02879225322685105 0.9843871350929946 0 0.006872832895322081 0 0 0 0 0 10 40 30 30 0
0.006869669494297163 -0.06662512591161321 0.1233623132340162 -0.16146822454627857 -0.36893421685490363 0.9153226583533959 0 0.006872832895322081 0 0 0 0 0 10 40 40 40 0
0.003801348705038589 -0.07533409509725393 0.14076362514289337 -0.15289121681915008 0.4748578877809007 0.8666800303638117 0 0.006872832895322081 0 0 0 0 0 10 50 10 10 0
0.0056381504761633785 -0.07634337829698504 0.13034660465207176 -0.17187733557008503 0.1452213525772093 0.974355660461092 0 0.006872832895322081 0 0 0 0 0 10 50 20 20 0
0.007401216946080747 -0.07442207315311777 0.12034775783445183 -0.17014095023630527 -0.20193102098619656 0.9645081298857764 0 0.006872832895322081 0 0 0 0 0 10 50 30 30 0
0.00894384892853118 -0.06990368617923624 0.11159905711801985 -0.14789149451538253 -0.5247275332341959 0.8383251961593177 0 0.006872832895322081 0 0 0 0 0 10 50 40 40 0
0.029256807742108693 -0.04311036775724729 0.17215613567785126 -0.5903518138896263 0.6702410579223338 0.44973510075819295 0 0.0038903656545303832 0 0 0 0 0 -10 20 10 10 0
0.027800760077573525 -0.0496195796375752 0.16389847902947613 -0.5541100555265922 0.5134006484103951 0.6552723260734473 0 0.0038903656545303832 0 0 0 0 0 -10 20 20 20 0
0.026130720184937586 -0.053450280770246675 0.15442721214833358 -0.5293688787763801 0.29463654371356424 0.7955865119728767 0 0.0038903656545303832 0 0 0 0 0 -10 20 30 30 0
0.024399838831647792 -0.05441846948043887 0.1446108961975059 -0.5191124346959448 0.04033492347260609 0.8537536968201723 0 0.0038903656545303832 0 0 0 0 0 -10 20 40 40 0
0.027758445974581283 -0.0555163705212611 0.16365850382646283 -0.5710395555886235 0.6009506437740526 0.5592603601564327 0 0.0038903656545303832 0 0 0 0 0 -10 30 10 10 0
0.026128242191165833 -0.06047064518247203 0.15441315874730674 -0.5400777079961774 0.41025123413805137 0.7348537235092475 0 0.0038903656545303832 0 0 0 0 0 -10 30 20 20 0
0.024368064184126344 -0.0625731094647636 0.14443069321669275 -0.5223089502241146 0.17006947100162523 0.835625356419141 0 0.0038903656545303832 0 0 0 0 0 -10 30 30 30 0
0.02263428434601411 -0.06179570785964999 0.13459793914158713 -0.5198764566986805 -0.0906251802956714 0.8494207127262708 0 0.0038903656545303832 0 0 0 0 0 -10 30 40 40 0
0.02590876093249298 -0.06623553645962532 0.15316841867524858 -0.554110055526592 0.5134006484103949 0.6552723260734472 0 0.0038903656545303832 0 0 0 0 0 -10 40 10 10 0
0.024153933947233405 -0.06948434077312232 0.1432163002971714 -0.5293688787763797 0.2946365437135637 0.795586511972876 0 0.0038903656545303832 0 0 0 0 0 -10 40 20 20 0
0.02235709994384122 -0.06979468589171481 0.1330259482808624 -0.5191124346959451 0.040334923472606296 0.8537536968201729 0 0.0038903656545303832 0 0 0 0 0 -10 40 30 30 0
0.020673101643952654 -0.06729531492568257 0.12347551933843726 -0.5245778018103813 -0.21883168381921908 0.822758059666532 0 0.0038903656545303832 0 0 0 0 0 -10 40 40 40 0
0.02376395435986186 -0.07494216913946253 0.14100461615328913 -0.540077707996177 0.41025123413805104 0.7348537235092472 0 0.0038903656545303832 0 0 0 0 0 -10 50 10 10 0
0.02193782370271997 -0.0763867898301543 0.1306481145571938 -0.5223089502241139 0.1700694710016249 0.8356253564191399 0 0.0038903656545303832 0 0 0 0 0 -10 50 20 20 0
0.020158929594926284 -0.07489558610566148 0.12055950474463839 -0.5198764566986805 -0.09062518029567132 0.8494207127262713 0 0.0038903656545303832 0 0 0 0 0 -10 50 30 30 0
0.01857588026945925 -0.07075018790077074 0.11158158588555911 -0.533073622038824 -0.3403890973640947 0.7745758688622236 0 0.0038903656545303832 0 0 0 0 0 -10 50 40 40 0
0.01627601616406837 -0.0431103677572473 0.17421499099039361 -0.6594787240028378 0.6702410579223339 0.34038909736409456 0 0.0038903656545303832 0 0 0 0 0 0 20 10 10 0
0.01627601616406837 -0.04961957963757521 0.16582994667781828 -0.6594787240028379 0.5134006484103951 0.5490970656823604 0 0.0038903656545303832 0 0 0 0 0 0 20 20 20 0
0.016276016164068374 -0.053450280770246675 0.15621257023843402 -0.6594787240028382 0.29463654371356424 0.6915758240697244 0 0.0038903656545303832 0 0 0 0 0 0 20 30 30 0
0.01627601616406837 -0.05441846948043889 0.14624482179128506 -0.6594787240028379 0.04033492347260611 0.7506403315021456 0 0.0038903656545303832 0 0 0 0 0 0 20 40 40 0
0.016276016164068374 -0.05551637052126111 0.16558626947048585 -0.659478724002838 0.6009506437740528 0.4516039604307566 0 0.0038903656545303832 0 0 0 0 0 0 30 10 10 0
0.016276016164068374 -0.06047064518247205 0.15619830004104387 -0.659478724002838 0.4102512341380514 0.629906134449728 0 0.0038903656545303832 0 0 0 0 0 0 30 20 20 0
0.016276016164068378 -0.0625731094647636 0.14606183888902624 -0.6594787240028386 0.17006947100162526 0.7322323322296149 0 0.0038903656545303832 0 0 0 0 0 0 30 30 30 0
0.016276016164068374 -0.061795707859649995 0.13607739873303598 -0.659478724002838 -0.0906251802956715 0.7462405041443207 0 0.0038903656545303832 0 0 0 0 0 0 30 40 40 0
0.01627601616406837 -0.06623553645962535 0.15493435784699544 -0.6594787240028378 0.5134006484103949 0.5490970656823602 0 0.0038903656545303832 0 0 0 0 0 0 40 10 10 0
0.01627601616406837 -0.06948434077312235 0.14482871200125863 -0.6594787240028379 0.2946365437135638 0.6915758240697237 0 0.0038903656545303832 0 0 0 0 0 0 40 20 20 0
0.016276016164068374 -0.06979468589171484 0.1344811573794149 -0.6594787240028382 0.04033492347260633 0.7506403315021464 0 0.0038903656545303832 0 0 0 0 0 0 40 30 30 0
0.01627601616406837 -0.06729531492568257 0.12478339767635262 -0.6594787240028379 -0.21883168381921916 0.719166536683985 0 0.0038903656545303832 0 0 0 0 0 0 40 40 40 0
0.01627601616406837 -0.07494216913946253 0.14258290906447488 -0.6594787240028377 0.41025123413805115 0.6299061344497274 0 0.0038903656545303832 0 0 0 0 0 0 50 10 10 0
0.01627601616406837 -0.07638678983015432 0.13206664173776247 -0.6594787240028378 0.1700694710016249 0.732232332229614 0 0.0038903656545303832 0 0 0 0 0 0 50 20 20 0
0.016276016164068374 -0.0748955861056615 0.12182239885716202 -0.6594787240028382 -0.0906251802956714 0.746240504144321 0 0.0038903656545303832 0 0 0 0 0 0 50 30 30 0
0.01627601616406837 -0.07075018790077076 0.11270598112830205 -0.6594787240028378 -0.3403890973640947 0.6702410579223335 0 0.0038903656545303832 0 0 0 0 0 0 50 40 40 0
0.0031349155046758274 -0.04311036775724729 0.17398847686231472 -0.7085677067995589 0.6702410579223338 0.22070054349178234 0 0.0038903656545303832 0 0 0 0 0 10 20 10 10 0
0.004590963169210996 -0.0496195796375752 0.16573082021393962 -0.7448094651625935 0.5134006484103951 0.42623776880703673 0 0.0038903656545303832 0 0 0 0 0 10 20 20 20 0
0.006261003061846945 -0.053450280770246675 0.15625955333279706 -0.7695506419128065 0.29463654371356424 0.566551954706466 0 0.0038903656545303832 0 0 0 0 0 10 20 30 30 0
0.007991884415136732 -0.05441846948043887 0.14644323738196938 -0.7798070859932409 0.04033492347260609 0.6247191395537618 0 0.0038903656545303832 0 0 0 0 0 10 20 40 40 0
0.004633277272203237 -0.0555163705212611 0.16549084501092629 -0.7278799651005622 0.6009506437740526 0.3302258028900221 0 0.0038903656545303832 0 0 0 0 0 10 30 10 10 0
0.006263481055618693 -0.06047064518247203 0.15624549993177023 -0.7588418126930088 0.41025123413805137 0.5058191662428368 0 0.0038903656545303832 0 0 0 0 0 10 30 20 20 0
0.008023659062658187 -0.0625731094647636 0.14626303440115623 -0.7766105704650724 0.17006947100162523 0.6065907991527303 0 0.0038903656545303832 0 0 0 0 0 10 30 30 30 0
0.009757438900770413 -0.06179570785964999 0.13643028032605062 -0.7790430639905056 -0.0906251802956714 0.6203861554598602 0 0.0038903656545303832 0 0 0 0 0 10 30 40 40 0
0.006482962314291541 -0.06623553645962532 0.15500075985971207 -0.7448094651625933 0.5134006484103949 0.42623776880703657 0 0.0038903656545303832 0 0 0 0 0 10 40 10 10 0
0.008237789299551119 -0.06948434077312232 0.14504864148163488 -0.769550641912806 0.2946365437135637 0.5665519547064654 0 0.0038903656545303832 0 0 0 0 0 10 40 20 20 0
0.010034623302943309 -0.06979468589171481 0.13485828946532588 -0.7798070859932414 0.040334923472606296 0.6247191395537622 0 0.0038903656545303832 0 0 0 0 0 10 40 30 30 0
0.011718621602831868 -0.06729531492568257 0.12530786052290074 -0.7743417188788044 -0.21883168381921908 0.5937235024001214 0 0.0038903656545303832 0 0 0 0 0 10 40 40 40 0
0.00862776888692266 -0.07494216913946253 0.14283695733775262 -0.7588418126930082 0.41025123413805104 0.5058191662428366 0 0.0038903656545303832 0 0 0 0 0 10 50 10 10 0
0.010453899544064553 -0.0763867898301543 0.1324804557416573 -0.7766105704650715 0.1700694710016249 0.6065907991527294 0 0.0038903656545303832 0 0 0 0 0 10 50 20 20 0
0.012232793651858247 -0.07489558610566148 0.12239184592910186 -0.7790430639905058 -0.09062518029567132 0.6203861554598605 0 0.0038903656545303832 0 0 0 0 0 10 50 30 30 0
0.013815842977325275 -0.07075018790077074 0.1134139270700226 -0.7658458986503615 -0.3403890973640947 0.5455413115958131 0 0.0038903656545303832 0 0 0 0 0 10 50 40 40 0
0.019088193311436227 -0.04300357930994915 0.17328084272447214 0.6396061273385114 0.7116982864365212 0.29049890262853023 0 0.004227773909124492 0 0 0 0 0 -10 20 10 10 0
0.017645380167696068 -0.04929413379261327 0.16509824277327315 0.6777156428509133 0.5329436406125265 0.5066287051084539 0 0.004227773909124492 0 0 0 0 0 -10 20 20 20 0
0.016000762976276103 -0.0529454310995925 0.15577115519534235 0.702910424976468 0.28990812632021556 0.6495154149263389 0 0.004227773909124492 0 0 0 0 0 -10 20 30 30 0
0.014304426151657505 -0.05379510830516096 0.14615075100193484 0.7121516111554496 0.01190541340542377 0.701924786094901 0 0.004227773909124492 0 0 0 0 0 -10 20 40 40 0
0.017594787855710812 -0.055296919419795865 0.16481131951409875 0.6600187274594993 0.6319212674971798 0.40626451058581364 0 0.004227773909124492 0 0 0 0 0 -10 30 10 10 0
0.01598421085828113 -0.06004909310132904 0.1556772834694813 0.6921591616936577 0.41777279089035646 0.5885419709326138 0 0.004227773909124492 0 0 0 0 0 -10 30 20 20 0
0.014254479011775883 -0.062000301806374815 0.14586748669558233 0.7096427610048982 0.15323475003242507 0.6876963898479306 0 0.004227773909124492 0 0 0 0 0 -10 30 30 30 0
0.012558292452448487 -0.06114073368135779 0.13624793469898894 0.710360745285839 -0.12978566318347082 0.6917682810472043 0 0.004227773909124492 0 0 0 0 0 -10 30 40 40 0
0.015753381022615528 -0.06591009061466341 0.1543681824190456 0.6777156428509132 0.5329436406125262 0.5066287051084538 0 0.004227773909124492 0 0 0 0 0 -10 40 10 10 0
0.01402397673857193 -0.06897949110246816 0.14456024334418016 0.7029104249764675 0.289908126320215 0.6495154149263382 0 0.004227773909124492 0 0 0 0 0 -10 40 20 20 0
0.012261687263850926 -0.0691713247164369 0.1345658030852913 0.7121516111554501 0.011905413405423932 0.7019247860949016 0 0.004227773909124492 0 0 0 0 0 -10 40 30 30 0
0.010617188740108072 -0.06662862880335056 0.1252393885052003 0.7043245779492916 -0.2675332680712503 0.6575354749712731 0 0.004227773909124492 0 0 0 0 0 -10 40 40 40 0
0.013619923026977163 -0.07452061705831953 0.14226874087546368 0.6921591616936573 0.41777279089035607 0.5885419709326135 0 0.004227773909124492 0 0 0 0 0 -10 50 10 10 0
0.01182423853036952 -0.07581398217176552 0.1320849080360834 0.7096427610048973 0.15323475003242476 0.6876963898479297 0 0.004227773909124492 0 0 0 0 0 -10 50 20 20 0
0.010082937701360654 -0.07424061192736928 0.1222095003020402 0.7103607452858391 -0.12978566318347073 0.6917682810472047 0 0.004227773909124492 0 0 0 0 0 -10 50 30 30 0
0.008540094468689873 -0.07009204675486654 0.11345960152607415 0.6942265150358806 -0.39715200998705036 0.6002665143570902 0 0.004227773909124492 0 0 0 0 0 -10 50 40 40 0
0.006066582506295429 -0.043003579309949164 0.1735568498444894 0.5794444680213925 0.7116982864365214 0.39715200998705025 0 0.004227773909124492 0 0 0 0 0 0 20 10 10 0
0.006066582506295428 -0.04929413379261329 0.16524802009962694 0.5794444680213926 0.5329436406125265 0.6166159630467746 0 0.004227773909124492 0 0 0 0 0 0 20 20 20 0
0.006066582506295426 -0.0529454310995925 0.15577704716160706 0.5794444680213929 0.28990812632021556 0.761706930680651 0 0.004227773909124492 0 0 0 0 0 0 20 30 30 0
0.006066582506295428 -0.053795108305160974 0.14600823272652386 0.5794444680213926 0.011905413405423785 0.8149248008774065 0 0.004227773909124492 0 0 0 0 0 0 20 40 40 0
0.0060665825062954275 -0.05529691941979588 0.16495667058669225 0.5794444680213927 0.6319212674971799 0.5147034890480082 0 0.004227773909124492 0 0 0 0 0 0 30 10 10 0
0.0060665825062954275 -0.060049093101329054 0.1556817273130641 0.5794444680213927 0.4177727908903565 0.6997928730310977 0 0.004227773909124492 0 0 0 0 0 0 30 20 20 0
0.006066582506295423 -0.06200030180637482 0.14572059861165615 0.5794444680213932 0.15323475003242512 0.8004769086837775 0 0.004227773909124492 0 0 0 0 0 0 30 30 30 0
0.0060665825062954275 -0.06114073368135779 0.13595264951989655 0.5794444680213927 -0.12978566318347093 0.8046116153682236 0 0.004227773909124492 0 0 0 0 0 0 30 40 40 0
0.006066582506295429 -0.06591009061466342 0.1543524312688041 0.5794444680213925 0.5329436406125263 0.6166159630467745 0 0.004227773909124492 0 0 0 0 0 0 40 10 10 0
0.006066582506295428 -0.06897949110246818 0.14439318892443168 0.5794444680213926 0.2899081263202151 0.7617069306806503 0 0.004227773909124492 0 0 0 0 0 0 40 20 20 0
0.006066582506295426 -0.06917132471643692 0.13424456831465367 0.5794444680213929 0.011905413405423967 0.8149248008774073 0 0.004227773909124492 0 0 0 0 0 0 40 30 30 0
0.006066582506295428 -0.06662862880335058 0.12477427875655007 0.5794444680213926 -0.2675332680712504 0.7698507130791991 0 0.004227773909124492 0 0 0 0 0 0 40 40 40 0
0.00606658250629543 -0.07452061705831954 0.1420663363364951 0.5794444680213925 0.4177727908903562 0.6997928730310973 0 0.004227773909124492 0 0 0 0 0 0 50 10 10 0
0.006066582506295429 -0.07581398217176552 0.13172540146039238 0.5794444680213926 0.15323475003242473 0.8004769086837766 0 0.004227773909124492 0 0 0 0 0 0 50 20 20 0
0.006066582506295426 -0.07424061192736929 0.12169764964402259 0.5794444680213929 -0.12978566318347085 0.8046116153682238 0 0.004227773909124492 0 0 0 0 0 0 50 30 30 0
0.006066582506295429 -0.07009204675486655 0.1128127695756002 0.5794444680213926 -0.39715200998705047 0.711698286436521 0 0.004227773909124492 0 0 0 0 0 0 50 40 40 0
-0.006805128904728859 -0.04300357930994915 0.17156748480956824 0.5016766817564919 0.7116982864365212 0.49173785449072765 0 0.004227773909124492 0 0 0 0 0 10 20 10 10 0
-0.0053623157609887055 -0.04929413379261327 0.16338488485836924 0.4635671662440901 0.5329436406125265 0.7078676569706513 0 0.004227773909124492 0 0 0 0 0 10 20 20 20 0
-0.003717698569568743 -0.0529454310995925 0.15405779728043845 0.43837238411853635 0.28990812632021556 0.8507543667885363 0 0.004227773909124492 0 0 0 0 0 10 20 30 30 0
-0.002021361744950138 -0.05379510830516096 0.1444373930870309 0.4291311979395541 0.01190541340542377 0.9031637379570985 0 0.004227773909124492 0 0 0 0 0 10 20 40 40 0
-0.005311723449003451 -0.055296919419795865 0.16309796159919485 0.4812640816355045 0.6319212674971798 0.607503462448011 0 0.004227773909124492 0 0 0 0 0 10 30 10 10 0
-0.003701146451573767 -0.06004909310132904 0.15396392555457739 0.44912364740134636 0.41777279089035646 0.7897809227948113 0 0.004227773909124492 0 0 0 0 0 10 30 20 20 0
-0.0019714146050685303 -0.062000301806374815 0.14415412878067843 0.4316400480901067 0.15323475003242507 0.8889353417101282 0 0.004227773909124492 0 0 0 0 0 10 30 30 30 0
-0.00027522804574112375 -0.06114073368135779 0.13453457678408504 0.4309220638091649 -0.12978566318347082 0.8930072329094018 0 0.004227773909124492 0 0 0 0 0 10 30 40 40 0
-0.0034703166159081597 -0.06591009061466341 0.1526548245041417 0.46356716624409 0.5329436406125262 0.7078676569706511 0 0.004227773909124492 0 0 0 0 0 10 40 10 10 0
-0.0017409123318645643 -0.06897949110246816 0.14284688542927626 0.438372384118536 0.289908126320215 0.8507543667885356 0 0.004227773909124492 0 0 0 0 0 10 40 20 20 0
2.137714285643192e-05 -0.0691713247164369 0.1328524451703874 0.42913119793955445 0.011905413405423932 0.9031637379570991 0 0.004227773909124492 0 0 0 0 0 10 40 30 30 0
0.001665875666599292 -0.06662862880335056 0.1235260305902964 0.43695823114571203 -0.2675332680712503 0.8587744268334705 0 0.004227773909124492 0 0 0 0 0 10 40 40 40 0
-0.0013368586202697945 -0.07452061705831953 0.14055538296055978 0.449123647401346 0.41777279089035607 0.7897809227948109 0 0.004227773909124492 0 0 0 0 0 10 50 10 10 0
0.0004588258763378464 -0.07581398217176552 0.13037155012117949 0.4316400480901062 0.15323475003242476 0.888935341710127 0 0.004227773909124492 0 0 0 0 0 10 50 20 20 0
0.0022001267053467053 -0.07424061192736928 0.1204961423871363 0.430922063809165 -0.12978566318347073 0.8930072329094022 0 0.004227773909124492 0 0 0 0 0 10 50 30 30 0
0.0037429699380174936 -0.07009204675486654 0.11174624361117025 0.44705629405912295 -0.39715200998705036 0.8015054662192875 0 0.004227773909124492 0 0 0 0 0 10 50 40 40 0
0.025119643145711665 -0.046995924934813575 0.17799818612275253 0.07468004632684218 0.9022142567234359 0.42477331190914647 0 0.006274368475124737 0 0 0 0 0 -10 20 10 10 0
0.02338010101383893 -0.054992841298047976 0.1681327524558037 0.12374704681519154 0.7002948599947139 0.7030460997218955 0 0.006274368475124737 0 0 0 0 0 -10 20 20 20 0
0.02135530694549409 -0.05966315225647661 0.1566495746675298 0.1578627149491463 0.4139095678992314 0.8965256681741044 0 0.006274368475124737 0 0 0 0 0 -10 20 30 30 0
0.019241200297328582 -0.06072158679896898 0.1446598800690558 0.17291219765811305 0.07760067326046821 0.9818755258561188 0 0.006274368475124737 0 0 0 0 0 -10 20 40 40 0
0.023490834931490054 -0.060217196042648066 0.16876075570979354 0.1007473512443812 0.8136152014525646 0.5726083443744169 0 0.006274368475124737 0 0 0 0 0 -10 30 10 10 0
0.021536583819499928 -0.06635307914547876 0.15767764690739625 0.14298029892776168 0.5656964135822219 0.8121232927600383 0 0.006274368475124737 0 0 0 0 0 -10 30 20 20 0
0.019401723815731953 -0.0689276435179723 0.14557025418059794 0.1679421001994015 0.24954628944396995 0.9536887024967998 0 0.006274368475124737 0 0 0 0 0 -10 30 30 30 0
0.01728781949126022 -0.06785589141330922 0.13358170701681016 0.17262199342898923 -0.0967028001122166 0.9802296958875125 0 0.006274368475124737 0 0 0 0 0 -10 30 40 40 0
0.021488101868758387 -0.0716087981200981 0.15740269210157615 0.12374704681519154 0.7002948599947135 0.7030460997218954 0 0.006274368475124737 0 0 0 0 0 -10 40 10 10 0
0.019378520707789913 -0.07569721225935225 0.1454386628163676 0.15786271494914614 0.41390956789923067 0.8965256681741037 0 0.006274368475124737 0 0 0 0 0 -10 40 20 20 0
0.01719846140952201 -0.07609780321024492 0.1330749321524123 0.1729121976581132 0.07760067326046849 0.9818755258561195 0 0.006274368475124737 0 0 0 0 0 -10 40 30 30 0
0.015148989321955917 -0.07292842910379385 0.1214517983623848 0.16708030522068112 -0.2680680078374699 0.9488012203017446 0 0.006274368475124737 0 0 0 0 0 -10 40 40 40 0
0.019172295988195958 -0.08082460310246925 0.14426910431337864 0.1429802989277616 0.5656964135822213 0.8121232927600378 0 0.006274368475124737 0 0 0 0 0 -10 50 10 10 0
0.016971483334325584 -0.082741323883363 0.131787675521099 0.1679421001994013 0.2495462894439695 0.9536887024967985 0 0.006274368475124737 0 0 0 0 0 -10 50 20 20 0
0.01481246474017239 -0.08095576965932072 0.1195432726198614 0.17262199342898932 -0.09670280011221646 0.9802296958875131 0 0.006274368475124737 0 0 0 0 0 -10 50 30 30 0
0.012889697061809724 -0.07578507337952546 0.10863871524221466 0.15645551442516878 -0.43128810479353863 0.8885450374259141 0 0.006274368475124737 0 0 0 0 0 -10 50 40 40 0
0.011187242980453564 -0.046995924934813596 0.17924987646914833 -0.00021562291658483435 0.9022142567234361 0.43128810479353846 0 0.006274368475124737 0 0 0 0 0 0 20 10 10 0
0.011187242980453564 -0.054992841298048 0.1692322525859349 -0.00021562291658483438 0.700294859994714 0.713853698902239 0 0.006274368475124737 0 0 0 0 0 0 20 20 20 0
0.011187242980453564 -0.059663152256476615 0.15757192827070632 -0.0002156229165848345 0.4139095678992314 0.9103180015647816 0 0.006274368475124737 0 0 0 0 0 0 20 30 30 0
0.011187242980453564 -0.060721586798968996 0.14539727330703306 -0.00021562291658483438 0.07760067326046824 0.99698451837576 0 0.006274368475124737 0 0 0 0 0 0 20 40 40 0
0.011187242980453564 -0.060217196042648066 0.16986994380238704 -0.0002156229165848344 0.8136152014525648 0.5814037309277672 0 0.006274368475124737 0 0 0 0 0 0 30 10 10 0
0.011187242980453564 -0.06635307914547878 0.15861586018200768 -0.00021562291658483443 0.5656964135822219 0.824613583462968 0 0.006274368475124737 0 0 0 0 0 0 30 20 20 0
0.011187242980453564 -0.06892764351797231 0.14632169140666473 -0.0002156229165848346 0.24954628944397 0.9683628678321847 0 0.006274368475124737 0 0 0 0 0 0 30 30 30 0
0.011187242980453564 -0.06785589141330924 0.13414820157870724 -0.00021562291658483443 -0.09670280011221666 0.9953132988269985 0 0.006274368475124737 0 0 0 0 0 0 30 40 40 0
0.011187242980453564 -0.07160879812009813 0.15833666375511207 -0.00021562291658483435 0.7002948599947136 0.7138536989022389 0 0.006274368475124737 0 0 0 0 0 0 40 10 10 0
0.011187242980453564 -0.07569721225935228 0.1461880700335309 -0.00021562291658483438 0.4139095678992308 0.9103180015647808 0 0.006274368475124737 0 0 0 0 0 0 40 20 20 0
0.011187242980453564 -0.07609780321024494 0.1336336088951629 -0.0002156229165848345 0.07760067326046854 0.9969845183757609 0 0.006274368475124737 0 0 0 0 0 0 40 30 30 0
0.011187242980453564 -0.07292842910379385 0.12183116953126055 -0.00021562291658483438 -0.26806800783747003 0.9633999883462083 0 0.006274368475124737 0 0 0 0 0 0 40 40 40 0
0.011187242980453564 -0.08082460310246926 0.1450004692054387 -0.00021562291658483432 0.5656964135822214 0.8246135834629673 0 0.006274368475124737 0 0 0 0 0 0 50 10 10 0
0.011187242980453564 -0.08274132388336301 0.13232649425540097 -0.00021562291658483435 0.24954628944396948 0.9683628678321835 0 0.006274368475124737 0 0 0 0 0 0 50 20 20 0
0.011187242980453564 -0.08095576965932073 0.11989320170283327 -0.0002156229165848345 -0.09670280011221655 0.9953132988269987 0 0.006274368475124737 0 0 0 0 0 0 50 30 30 0
0.011187242980453564 -0.07578507337952547 0.10882042395073577 -0.00021562291658483435 -0.43128810479353874 0.9022142567234356 0 0.006274368475124737 0 0 0 0 0 0 50 40 40 0
-0.0027508464680160976 -0.046995924934813575 0.1780632149274259 -0.07510474056680187 0.9022142567234359 0.42469842685609005 0 0.006274368475124737 0 0 0 0 0 10 20 10 10 0
-0.0010113043361433664 -0.054992841298047976 0.16819778126047708 -0.12417174105515123 0.7002948599947139 0.702971214668839 0 0.006274368475124737 0 0 0 0 0 10 20 20 20 0
0.0010134897322014785 -0.05966315225647661 0.15671460347220317 -0.158287409189106 0.4139095678992314 0.8964507831210481 0 0.006274368475124737 0 0 0 0 0 10 20 30 30 0
0.0031275963803669834 -0.06072158679896898 0.14472490887372919 -0.17333689189807278 0.07760067326046821 0.9818006408030624 0 0.006274368475124737 0 0 0 0 0 10 20 40 40 0
-0.0011220382537944886 -0.060217196042648066 0.16882578451446692 -0.10117204548434092 0.8136152014525646 0.5725334593213605 0 0.006274368475124737 0 0 0 0 0 10 30 10 10 0
0.0008322128581956382 -0.06635307914547876 0.15774267571206962 -0.14340499316772137 0.5656964135822219 0.812048407706982 0 0.006274368475124737 0 0 0 0 0 10 30 20 20 0
0.002967072861963613 -0.0689276435179723 0.1456352829852713 -0.16836679443936123 0.24954628944396995 0.9536138174437434 0 0.006274368475124737 0 0 0 0 0 10 30 30 30 0
0.005080977186435348 -0.06785589141330922 0.1336467358214835 -0.17304668766894893 -0.0967028001122166 0.9801548108344562 0 0.006274368475124737 0 0 0 0 0 10 30 40 40 0
0.000880694808937179 -0.0716087981200981 0.15746772090624953 -0.12417174105515123 0.7002948599947135 0.7029712146688389 0 0.006274368475124737 0 0 0 0 0 10 40 10 10 0
0.002990275969905654 -0.07569721225935225 0.145503691621041 -0.15828740918910586 0.41390956789923067 0.8964507831210473 0 0.006274368475124737 0 0 0 0 0 10 40 20 20 0
0.005170335268173557 -0.07609780321024492 0.1331399609570857 -0.17333689189807291 0.07760067326046849 0.9818006408030632 0 0.006274368475124737 0 0 0 0 0 10 40 30 30 0
0.0072198073557396495 -0.07292842910379385 0.12151682716705817 -0.16750499946064082 -0.2680680078374699 0.9487263352486882 0 0.006274368475124737 0 0 0 0 0 10 40 40 40 0
0.0031965006894996086 -0.08082460310246925 0.14433413311805202 -0.1434049931677213 0.5656964135822213 0.8120484077069815 0 0.006274368475124737 0 0 0 0 0 10 50 10 10 0
0.005397313343369985 -0.082741323883363 0.13185270432577237 -0.168366794439361 0.2495462894439695 0.9536138174437421 0 0.006274368475124737 0 0 0 0 0 10 50 20 20 0
0.007556331937523178 -0.08095576965932072 0.11960830142453478 -0.173046687668949 -0.09670280011221646 0.9801548108344568 0 0.006274368475124737 0 0 0 0 0 10 50 30 30 0
0.009479099615885844 -0.07578507337952546 0.10870374404688803 -0.15688020866512847 -0.43128810479353863 0.8884701523728578 0 0.006274368475124737 0 0 0 0 0 10 50 40 40 0
