# .PCD v0.7 - Point Cloud Data file format
VERSION 0.7
FIELDS x y z normal_x normal_y normal_z curvature xx xy xz zx zy zz a0 a1 a2 a3 a4
SIZE 4 4 4 4 4 4 4 4 4 4 4 4 4 4 4 4 4 4
TYPE F F F F F F F F F F F F F F F F F F
COUNT 1 1 1 1 1 1 1 1 1 1 1 1 1 1 1 1 1 1
WIDTH 282
HEIGHT 1
VIEWPOINT 0 0 0 1 0 0 0
POINTS 282
DATA ascii
0.057422947156561 -0.08426373654300057 0.0720826167628506 0.7280771039975259 0.4547972614723914 -0.5128969102236857 0 0.005566227291016288 0 0 0 0 0 20 60 -10 -20 0
0.0549997938138129 -0.08302178677709639 0.07451409637779224 0.80750111957285 0.3423301041061798 -0.48036663147689623 0 0.005566227291016288 0 0 0 0 0 20 60 -10 -20 10
0.05244171509490733 -0.0813418490381118 0.07650413329262455 0.8747637126234094 0.23018285189781013 -0.4263852256993836 0 0.005566227291016288 0 0 0 0 0 20 60 -10 -20 20
0.04982643692726796 -0.07927496738415636 0.07799226124269765 0.9278211432958777 0.12176304235638592 -0.35259289058978793 0 0.005566227291016288 0 0 0 0 0 20 60 -10 -20 30
0.05423160502309553 -0.08346019598778029 0.07658632410173066 0.7280771039975258 0.4547972614723913 -0.5128969102236856 0 0.005566227291016288 0 0 0 0 0 20 60 -10 -10 -10
0.05180845168034742 -0.08221824622187611 0.07901780371667232 0.8075011195728501 0.34233010410617987 -0.48036663147689623 0 0.005566227291016288 0 0 0 0 0 20 60 -10 -10 0
0.04925037296144186 -0.08053830848289152 0.08100784063150462 0.8747637126234094 0.23018285189781015 -0.4263852256993835 0 0.005566227291016288 0 0 0 0 0 20 60 -10 -10 10
0.046635094793802484 -0.07847142682893607 0.0824959685815777 0.9278211432958774 0.12176304235638581 -0.3525928905897878 0 0.005566227291016288 0 0 0 0 0 20 60 -10 -10 20
0.04404208108115842 -0.07608040241317261 0.08343697155215765 0.9650612884076266 0.020364956531752236 -0.261231768909691 0 0.005566227291016288 0 0 0 0 0 20 60 -10 -10 30
0.04824710143686032 -0.08066768328833548 0.08302108497875499 0.8075011195728501 0.34233010410617987 -0.48036663147689623 0 0.005566227291016288 0 0 0 0 0 20 60 -10 0 -10
0.04568902271795475 -0.0789877455493509 0.0850111218935873 0.8747637126234096 0.2301828518978103 -0.4263852256993835 0 0.005566227291016288 0 0 0 0 0 20 60 -10 0 0
0.04307374455031538 -0.07692086389539544 0.08649924984366038 0.9278211432958774 0.1217630423563859 -0.3525928905897878 0 0.005566227291016288 0 0 0 0 0 20 60 -10 0 10
0.040480730837671314 -0.07452983947963197 0.08744025281424032 0.9650612884076263 0.020364956531752177 -0.2612317689096909 0 0.005566227291016288 0 0 0 0 0 20 60 -10 0 20
0.03798876898955299 -0.07188732236901674 0.08780553890623656 0.9853526249938586 -0.07093047604821648 -0.15507782211038454 0 0.005566227291016288 0 0 0 0 0 20 60 -10 0 30
0.041865874189464226 -0.0767372733076029 0.08839233940348225 0.8747637126234094 0.2301828518978102 -0.4263852256993835 0 0.005566227291016288 0 0 0 0 0 20 60 -10 10 -10
0.03925059602182485 -0.07467039165364744 0.08988046735355533 0.9278211432958774 0.1217630423563859 -0.3525928905897878 0 0.005566227291016288 0 0 0 0 0 20 60 -10 10 0
0.036657582309180786 -0.07227936723788397 0.09082147032413528 0.9650612884076262 0.020364956531752288 -0.2612317689096909 0 0.005566227291016288 0 0 0 0 0 20 60 -10 10 10
0.03416562046106247 -0.06963685012726874 0.09118675641613151 0.9853526249938581 -0.07093047604821645 -0.1550778221103845 0 0.005566227291016288 0 0 0 0 0 20 60 -10 10 20
0.03185042747723143 -0.06682313186702958 0.09096522659648239 0.9880786110603128 -0.14934928986229573 -0.03735648414887629 0 0.005566227291016288 0 0 0 0 0 20 60 -10 10 30
0.035281813641762555 -0.07178838956396365 0.09253688452820304 0.9278211432958773 0.12176304235638581 -0.3525928905897878 0 0.005566227291016288 0 0 0 0 0 20 60 -10 20 -10
0.03268879992911849 -0.06939736514820018 0.09347788749878298 0.9650612884076263 0.020364956531752177 -0.2612317689096909 0 0.005566227291016288 0 0 0 0 0 20 60 -10 20 0
0.03019683808100017 -0.06675484803758494 0.0938431735907792 0.9853526249938581 -0.07093047604821646 -0.15507782211038448 0 0.005566227291016288 0 0 0 0 0 20 60 -10 20 10
0.027881645097169137 -0.06394112977734578 0.0936216437711301 0.9880786110603125 -0.14934928986229576 -0.03735648414887625 0 0.005566227291016288 0 0 0 0 0 20 60 -10 20 20
0.02581356694489491 -0.061041703773009943 0.09282002911130617 0.9731564188997754 -0.21250876893457935 0.08835534169074451 0 0.005566227291016288 0 0 0 0 0 20 60 -10 20 30
0.05312220611627158 -0.08892944313636494 0.06477541716843736 0.7312001579302704 0.5392123199012664 -0.41784741477560505 0 0.005566227291016288 0 0 0 0 0 20 60 0 -20 -10
0.05082714531802714 -0.08822362078432677 0.06752509264039808 0.8067069685755496 0.4195834530776965 -0.4161413842436949 0 0.005566227291016288 0 0 0 0 0 20 60 0 -20 0
0.04840284571052261 -0.08698253155875801 0.0699558689379228 0.8707184130832222 0.2955455490738563 -0.39306784715323984 0 0.005566227291016288 0 0 0 0 0 20 60 0 -20 10
0.04592296841057723 -0.08524388532775612 0.07199388815324342 0.9212895361032765 0.17086743683669472 -0.34932788125296027 0 0.005566227291016288 0 0 0 0 0 20 60 0 -20 20
0.04346286323507138 -0.08306050997725266 0.07357722610378989 0.9568837596529713 0.049337397716369205 -0.2862505032732454 0 0.005566227291016288 0 0 0 0 0 20 60 0 -20 30
0.04745513193726703 -0.0875557163418598 0.07191794493096118 0.8067069685755495 0.4195834530776963 -0.4161413842436949 0 0.005566227291016288 0 0 0 0 0 20 60 0 -10 -10
0.04503083232976251 -0.08631462711629104 0.07434872122848592 0.8707184130832222 0.2955455490738562 -0.3930678471532399 0 0.005566227291016288 0 0 0 0 0 20 60 0 -10 0
0.04255095502981713 -0.08457598088528914 0.07638674044380653 0.9212895361032765 0.17086743683669472 -0.3493278812529602 0 0.005566227291016288 0 0 0 0 0 20 60 0 -10 10
0.04009084985431128 -0.08239260553478567 0.07797007839435299 0.9568837596529711 0.04933739771636905 -0.2862505032732453 0 0.005566227291016288 0 0 0 0 0 20 60 0 -10 20
0.037725265854129414 -0.07983084181996444 0.07905062615770561 0.976419571261295 -0.06535193954561665 -0.2057522874253155 0 0.005566227291016288 0 0 0 0 0 20 60 0 -10 30
0.041408642140185394 -0.0848097388205876 0.07831467272579197 0.8707184130832222 0.2955455490738562 -0.3930678471532399 0 0.005566227291016288 0 0 0 0 0 20 60 0 0 -10
0.038928764840240014 -0.0830710925895857 0.08035269194111258 0.9212895361032767 0.17086743683669478 -0.3493278812529602 0 0.005566227291016288 0 0 0 0 0 20 60 0 0 0
0.036468659664734164 -0.08088771723908222 0.08193602989165905 0.956883759652971 0.04933739771636911 -0.28625050327324525 0 0.005566227291016288 0 0 0 0 0 20 60 0 0 10
0.0341030756645523 -0.07832595352426099 0.08301657765501166 0.9764195712612947 -0.06535193954561669 -0.2057522874253153 0 0.005566227291016288 0 0 0 0 0 20 60 0 0 20
0.03190388991249668 -0.07546363933928185 0.08356150333416452 0.9793033851781264 -0.16971579747216212 -0.11027913126364713 0 0.005566227291016288 0 0 0 0 0 20 60 0 0 30
0.0351664562578395 -0.08077494571000052 0.08377123921578417 0.9212895361032765 0.17086743683669467 -0.3493278812529601 0 0.005566227291016288 0 0 0 0 0 20 60 0 10 -10
0.03270635108233365 -0.07859157035949704 0.08535457716633063 0.956883759652971 0.04933739771636911 -0.28625050327324525 0 0.005566227291016288 0 0 0 0 0 20 60 0 10 0
0.030340767082151786 -0.0760298066446758 0.08643512492968324 0.9764195712612945 -0.06535193954561666 -0.20575228742531532 0 0.005566227291016288 0 0 0 0 0 20 60 0 10 10
0.02814158133009617 -0.07316749245969666 0.0869800506088361 0.9793033851781259 -0.16971579747216214 -0.11027913126364704 0 0.005566227291016288 0 0 0 0 0 20 60 0 10 20
0.02617561497240132 -0.07009159777266932 0.08697279691277383 0.9654475781768828 -0.2605831330508293 -0.0027319383264646844 0 0.005566227291016288 0 0 0 0 0 20 60 0 10 30
0.028918239949565983 -0.07557393215705994 0.08812184938929528 0.9568837596529709 0.04933739771636903 -0.28625050327324525 0 0.005566227291016288 0 0 0 0 0 20 60 0 20 -10
0.026552655949384114 -0.0730121684422387 0.0892023971526479 0.9764195712612947 -0.06535193954561669 -0.2057522874253153 0 0.005566227291016288 0 0 0 0 0 20 60 0 20 0
0.024353470197328503 -0.07014985425725956 0.08974732283180074 0.9793033851781259 -0.16971579747216214 -0.11027913126364705 0 0.005566227291016288 0 0 0 0 0 20 60 0 20 10
0.022387503839633657 -0.06707395957023222 0.08974006913573848 0.9654475781768824 -0.26058313305082925 -0.0027319383264646393 0 0.005566227291016288 0 0 0 0 0 20 60 0 20 20
0.02071449176925116 -0.06387794388474421 0.0891808564643454 0.9352731519419204 -0.33519298827115096 0.11362152435034117 0 0.005566227291016288 0 0 0 0 0 20 60 0 20 30
0.046523657817612224 -0.09149775993789167 0.05949886279317513 0.8129694692830647 0.4918560367365799 -0.3117023260494063 0 0.005566227291016288 0 0 0 0 0 20 60 10 -20 -10
0.0441453227361134 -0.09083644358211612 0.06218817262639874 0.8743327769162121 0.3646681652887882 -0.32024893967054513 0 0.005566227291016288 0 0 0 0 0 20 60 10 -20 0
0.0417198367574896 -0.08959598841338384 0.0646180889219205 0.922392383869843 0.23210479105791829 -0.3087389108487662 0 0.005566227291016288 0 0 0 0 0 20 60 10 -20 10
0.039320897045846195 -0.08781408503429614 0.06671477990269797 0.9556880233060057 0.09819378508967114 -0.27752196598546386 0 0.005566227291016288 0 0 0 0 0 20 60 10 -20 20
0.0370213941703994 -0.08554487567733998 0.06841453867425705 0.9732080240688391 -0.03299603446184659 -0.22754661615377336 0 0.005566227291016288 0 0 0 0 0 20 60 10 -20 30
0.04058631664823911 -0.09026847751676544 0.06644547365475953 0.8743327769162121 0.3646681652887881 -0.320248939670545 0 0.005566227291016288 0 0 0 0 0 20 60 10 -10 -10
0.03816083066961532 -0.08902802234803316 0.0688753899502813 0.9223923838698431 0.2321047910579183 -0.30873891084876615 0 0.005566227291016288 0 0 0 0 0 20 60 10 -10 0
0.035761890957971915 -0.08724611896894545 0.07097208093105876 0.9556880233060056 0.0981937850896712 -0.27752196598546386 0 0.005566227291016288 0 0 0 0 0 20 60 10 -10 10
0.03346238808252512 -0.08497690961198928 0.07267183970261783 0.9732080240688389 -0.03299603446184654 -0.2275466161537732 0 0.005566227291016288 0 0 0 0 0 20 60 10 -10 20
0.031332191274540795 -0.08228934305520043 0.07392301995480413 0.9744200498007124 -0.157478531314814 -0.16033133706958308 0 0.005566227291016288 0 0 0 0 0 20 60 10 -10 30
0.034475671820716876 -0.08755678769432934 0.07279569538265825 0.9223923838698431 0.2321047910579183 -0.30873891084876615 0 0.005566227291016288 0 0 0 0 0 20 60 10 0 -10
0.03207673210907347 -0.08577488431524163 0.07489238636343572 0.9556880233060058 0.09819378508967122 -0.2775219659854638 0 0.005566227291016288 0 0 0 0 0 20 60 10 0 0
0.029777229233626683 -0.08350567495828547 0.07659214513499478 0.9732080240688389 -0.03299603446184655 -0.22754661615377325 0 0.005566227291016288 0 0 0 0 0 20 60 10 0 10
0.02764703242564235 -0.08081810840149661 0.07784332538718108 0.9744200498007122 -0.15747853131481399 -0.16033133706958305 0 0.005566227291016288 0 0 0 0 0 20 60 10 0 20
0.025750866637199485 -0.07779384499472881 0.07860791064115968 0.9592872737130774 -0.27147136779353653 -0.07791843097529398 0 0.005566227291016288 0 0 0 0 0 20 60 10 0 30
0.028377392185994287 -0.08344508379365682 0.07835657970303639 0.9556880233060056 0.0981937850896712 -0.27752196598546386 0 0.005566227291016288 0 0 0 0 0 20 60 10 10 -10
0.026077889310547497 -0.08117587443670066 0.08005633847459545 0.9732080240688389 -0.03299603446184655 -0.22754661615377325 0 0.005566227291016288 0 0 0 0 0 20 60 10 10 0
0.023947692502563168 -0.0784883078799118 0.08130751872678174 0.974420049800712 -0.15747853131481393 -0.16033133706958305 0 0.005566227291016288 0 0 0 0 0 20 60 10 10 10
0.022051526714120306 -0.07546404447314399 0.08207210398076034 0.959287273713077 -0.27147136779353637 -0.07791843097529395 0 0.005566227291016288 0 0 0 0 0 20 60 10 10 20
0.02044700598319456 -0.07219497492966075 0.0823268627004879 0.9282694975498024 -0.3715109292447664 0.017188027680361543 0 0.005566227291016288 0 0 0 0 0 20 60 10 10 30
0.022476770884894012 -0.07805829785714727 0.08295916195976244 0.9732080240688389 -0.032996034461846575 -0.22754661615377322 0 0.005566227291016288 0 0 0 0 0 20 60 10 20 -10
0.02034657407690968 -0.07537073130035842 0.08421034221194874 0.9744200498007122 -0.15747853131481399 -0.16033133706958305 0 0.005566227291016288 0 0 0 0 0 20 60 10 20 0
0.01845040828846682 -0.0723464678935906 0.08497492746592733 0.9592872737130771 -0.2714713677935363 -0.07791843097529395 0 0.005566227291016288 0 0 0 0 0 20 60 10 20 10
0.01684588755754108 -0.06907739835010736 0.0852296861856549 0.9282694975498021 -0.37151092924476636 0.01718802768036154 0 0.005566227291016288 0 0 0 0 0 20 60 10 20 20
0.015581764434614967 -0.0656628516937584 0.08496687765634663 0.882309180743857 -0.45455756421626897 0.12209827727732186 0 0.005566227291016288 0 0 0 0 0 20 60 10 20 30
0.048200269091145276 -0.09155997566434934 0.06120749846972102 0.7312001579302702 0.5392123199012666 -0.41784741477560516 0 0.005566227291016288 0 0 0 0 0 20 70 -10 -20 -10
0.04590520829290083 -0.09085415331231116 0.06395717394168174 0.8067069685755496 0.4195834530776966 -0.41614138424369507 0 0.005566227291016288 0 0 0 0 0 20 70 -10 -20 0
0.04348090868539631 -0.0896130640867424 0.06638795023920646 0.8707184130832222 0.29554554907385644 -0.39306784715323995 0 0.005566227291016288 0 0 0 0 0 20 70 -10 -20 10
0.04100103138545093 -0.0878744178557405 0.06842596945452709 0.9212895361032764 0.17086743683669484 -0.3493278812529604 0 0.005566227291016288 0 0 0 0 0 20 70 -10 -20 20
0.03854092620994508 -0.08569104250523704 0.07000930740507355 0.9568837596529713 0.049337397716369316 -0.2862505032732456 0 0.005566227291016288 0 0 0 0 0 20 70 -10 -20 30
0.042533194912140734 -0.09018624886984418 0.06835002623224486 0.8067069685755494 0.4195834530776964 -0.416141384243695 0 0.005566227291016288 0 0 0 0 0 20 70 -10 -10 -10
0.04010889530463621 -0.08894515964427542 0.07078080252976958 0.8707184130832222 0.29554554907385633 -0.39306784715323995 0 0.005566227291016288 0 0 0 0 0 20 70 -10 -10 0
0.03762901800469083 -0.08720651341327353 0.07281882174509019 0.9212895361032762 0.17086743683669484 -0.3493278812529603 0 0.005566227291016288 0 0 0 0 0 20 70 -10 -10 10
0.03516891282918498 -0.08502313806277005 0.07440215969563665 0.956883759652971 0.04933739771636922 -0.2862505032732453 0 0.005566227291016288 0 0 0 0 0 20 70 -10 -10 20
0.03280332882900311 -0.08246137434794883 0.07548270745898927 0.9764195712612949 -0.06535193954561654 -0.20575228742531546 0 0.005566227291016288 0 0 0 0 0 20 70 -10 -10 30
0.03648670511505909 -0.08744027134857198 0.07474675402707562 0.8707184130832222 0.29554554907385633 -0.39306784715323995 0 0.005566227291016288 0 0 0 0 0 20 70 -10 0 -10
0.03400682781511371 -0.08570162511757008 0.07678477324239624 0.9212895361032766 0.1708674368366949 -0.34932788125296027 0 0.005566227291016288 0 0 0 0 0 20 70 -10 0 0
0.03154672263960786 -0.08351824976706661 0.0783681111929427 0.9568837596529711 0.04933739771636922 -0.28625050327324536 0 0.005566227291016288 0 0 0 0 0 20 70 -10 0 10
0.02918113863942599 -0.08095648605224537 0.07944865895629531 0.9764195712612946 -0.06535193954561658 -0.20575228742531534 0 0.005566227291016288 0 0 0 0 0 20 70 -10 0 20
0.026981952887370368 -0.07809417186726623 0.07999358463544817 0.9793033851781265 -0.16971579747216195 -0.11027913126364712 0 0.005566227291016288 0 0 0 0 0 20 70 -10 0 30
0.0302445192327132 -0.0834054782379849 0.08020332051706781 0.9212895361032764 0.17086743683669478 -0.3493278812529603 0 0.005566227291016288 0 0 0 0 0 20 70 -10 10 -10
0.02778441405720735 -0.08122210288748143 0.08178665846761428 0.9568837596529711 0.04933739771636922 -0.28625050327324536 0 0.005566227291016288 0 0 0 0 0 20 70 -10 10 0
0.025418830057025485 -0.07866033917266019 0.0828672062309669 0.9764195712612946 -0.06535193954561655 -0.20575228742531537 0 0.005566227291016288 0 0 0 0 0 20 70 -10 10 10
0.023219644304969866 -0.07579802498768104 0.08341213191011974 0.979303385178126 -0.16971579747216198 -0.11027913126364702 0 0.005566227291016288 0 0 0 0 0 20 70 -10 10 20
0.021253677947275017 -0.0727221303006537 0.08340487821405748 0.965447578176883 -0.2605831330508292 -0.0027319383264645908 0 0.005566227291016288 0 0 0 0 0 20 70 -10 10 30
0.023996302924439675 -0.07820446468504433 0.08455393069057894 0.956883759652971 0.0493373977163692 -0.2862505032732453 0 0.005566227291016288 0 0 0 0 0 20 70 -10 20 -10
0.021630718924257806 -0.07564270097022309 0.08563447845393156 0.9764195712612946 -0.06535193954561658 -0.20575228742531534 0 0.005566227291016288 0 0 0 0 0 20 70 -10 20 0
0.01943153317220219 -0.07278038678524394 0.0861794041330844 0.9793033851781259 -0.16971579747216198 -0.11027913126364705 0 0.005566227291016288 0 0 0 0 0 20 70 -10 20 10
0.017465566814507345 -0.06970449209821661 0.08617215043702214 0.9654475781768825 -0.26058313305082914 -0.0027319383264646567 0 0.005566227291016288 0 0 0 0 0 20 70 -10 20 20
0.01579255474412485 -0.0665084764127286 0.08561293776562906 0.9352731519419206 -0.33519298827115085 0.1136215243503412 0 0.005566227291016288 0 0 0 0 0 20 70 -10 20 30
0.041601720792485926 -0.09412829246587608 0.05593094409445878 0.8129694692830649 0.4918560367365802 -0.31170232604940656 0 0.005566227291016288 0 0 0 0 0 20 70 0 -20 -10
0.039223385710987095 -0.09346697611010055 0.05862025392768239 0.8743327769162126 0.3646681652887884 -0.32024893967054524 0 0.005566227291016288 0 0 0 0 0 20 70 0 -20 0
0.0367978997323633 -0.09222652094136827 0.061050170223204164 0.9223923838698432 0.23210479105791848 -0.30873891084876626 0 0.005566227291016288 0 0 0 0 0 20 70 0 -20 10
0.03439896002071989 -0.09044461756228056 0.06314686120398164 0.9556880233060061 0.09819378508967129 -0.27752196598546397 0 0.005566227291016288 0 0 0 0 0 20 70 0 -20 20
0.0320994571452731 -0.0881754082053244 0.06484661997554071 0.9732080240688397 -0.03299603446184649 -0.2275466161537735 0 0.005566227291016288 0 0 0 0 0 20 70 0 -20 30
0.03566437962311281 -0.09289901004474985 0.06287755495604318 0.8743327769162123 0.36466816528878837 -0.32024893967054524 0 0.005566227291016288 0 0 0 0 0 20 70 0 -10 -10
0.03323889364448901 -0.09165855487601757 0.06530747125156494 0.9223923838698433 0.2321047910579185 -0.3087389108487663 0 0.005566227291016288 0 0 0 0 0 20 70 0 -10 0
0.030839953932845606 -0.08987665149692986 0.06740416223234241 0.9556880233060059 0.09819378508967133 -0.27752196598546397 0 0.005566227291016288 0 0 0 0 0 20 70 0 -10 10
0.028540451057398813 -0.08760744213997368 0.06910392100390149 0.9732080240688392 -0.032996034461846506 -0.2275466161537733 0 0.005566227291016288 0 0 0 0 0 20 70 0 -10 20
0.026410254249414483 -0.08491987558318484 0.07035510125608778 0.9744200498007127 -0.15747853131481393 -0.16033133706958308 0 0.005566227291016288 0 0 0 0 0 20 70 0 -10 30
0.029553734795590564 -0.09018732022231375 0.06922777668394191 0.9223923838698433 0.2321047910579185 -0.3087389108487663 0 0.005566227291016288 0 0 0 0 0 20 70 0 0 -10
0.027154795083947157 -0.08840541684322605 0.07132446766471938 0.9556880233060062 0.09819378508967137 -0.27752196598546397 0 0.005566227291016288 0 0 0 0 0 20 70 0 0 0
0.02485529220850037 -0.08613620748626988 0.07302422643627846 0.9732080240688393 -0.03299603446184645 -0.22754661615377325 0 0.005566227291016288 0 0 0 0 0 20 70 0 0 10
0.022725095400516038 -0.08344864092948102 0.07427540668846475 0.9744200498007126 -0.1574785313148139 -0.16033133706958302 0 0.005566227291016288 0 0 0 0 0 20 70 0 0 20
0.020828929612073173 -0.08042437752271321 0.07503999194244335 0.9592872737130779 -0.2714713677935364 -0.07791843097529401 0 0.005566227291016288 0 0 0 0 0 20 70 0 0 30
0.02345545516086798 -0.08607561632164124 0.07478866100432004 0.955688023306006 0.09819378508967136 -0.27752196598546386 0 0.005566227291016288 0 0 0 0 0 20 70 0 10 -10
0.021155952285421185 -0.08380640696468507 0.07648841977587911 0.9732080240688393 -0.03299603446184645 -0.22754661615377325 0 0.005566227291016288 0 0 0 0 0 20 70 0 10 0
0.019025755477436852 -0.08111884040789621 0.0777396000280654 0.9744200498007125 -0.15747853131481387 -0.160331337069583 0 0.005566227291016288 0 0 0 0 0 20 70 0 10 10
0.01712958968899399 -0.0780945770011284 0.078504185282044 0.9592872737130774 -0.2714713677935364 -0.0779184309752939 0 0.005566227291016288 0 0 0 0 0 20 70 0 10 20
0.015525068958068246 -0.07482550745764514 0.07875894400177155 0.9282694975498029 -0.3715109292447664 0.01718802768036162 0 0.005566227291016288 0 0 0 0 0 20 70 0 10 30
0.017554833859767697 -0.08068883038513167 0.0793912432610461 0.9732080240688392 -0.032996034461846506 -0.2275466161537733 0 0.005566227291016288 0 0 0 0 0 20 70 0 20 -10
0.015424637051783367 -0.07800126382834283 0.08064242351323239 0.9744200498007126 -0.1574785313148139 -0.16033133706958302 0 0.005566227291016288 0 0 0 0 0 20 70 0 20 0
0.013528471263340508 -0.07497700042157501 0.08140700876721099 0.9592872737130773 -0.27147136779353637 -0.0779184309752939 0 0.005566227291016288 0 0 0 0 0 20 70 0 20 10
0.011923950532414764 -0.07170793087809176 0.08166176748693854 0.9282694975498026 -0.3715109292447663 0.017188027680361637 0 0.005566227291016288 0 0 0 0 0 20 70 0 20 20
0.010659827409488652 -0.0682933842217428 0.08139895895763029 0.8823091807438574 -0.4545575642162692 0.12209827727732199 0 0.005566227291016288 0 0 0 0 0 20 70 0 20 30
0.03512046046493085 -0.09528740824682544 0.050046317335635526 0.8817283393303995 0.4235371135374641 -0.207777544511489 0 0.005566227291016288 0 0 0 0 0 20 70 10 -20 -10
0.03265856618367956 -0.09465334816579438 0.05266609763614978 0.9288997530533938 0.29171997133665667 -0.22813321990867316 0 0.005566227291016288 0 0 0 0 0 20 70 10 -20 0
0.030231889774859765 -0.0934132813049035 0.05509502337580821 0.9609529444786526 0.15393544538810808 -0.22994211462058597 0 0.005566227291016288 0 0 0 0 0 20 70 10 -20 10
0.027914164573195965 -0.09160488646821689 0.05725929287510703 0.9769139936044173 0.01437004879043084 -0.213149266296751 0 0.005566227291016288 0 0 0 0 0 20 70 10 -20 20
0.025775813486115157 -0.0892831108177553 0.05909314590048326 0.9762979320296823 -0.1227355945042529 -0.17826491713589668 0 0.005566227291016288 0 0 0 0 0 20 70 10 -20 30
0.02891192760765431 -0.09414658616490554 0.0567672698449326 0.9288997530533937 0.29171997133665656 -0.22813321990867313 0 0.005566227291016288 0 0 0 0 0 20 70 10 -10 -10
0.02648525119883452 -0.09290651930401467 0.059196195584591035 0.9609529444786526 0.15393544538810805 -0.229942114620586 0 0.005566227291016288 0 0 0 0 0 20 70 10 -10 0
0.024167525997170723 -0.09109812446732804 0.061360465083889856 0.9769139936044172 0.01437004879043085 -0.21314926629675096 0 0.005566227291016288 0 0 0 0 0 20 70 10 -10 10
0.02202917491008992 -0.08877634881686647 0.06319431810926608 0.9762979320296818 -0.12273559450425295 -0.1782649171358966 0 0.005566227291016288 0 0 0 0 0 20 70 10 -10 20
0.0201351706533152 -0.08601173833089402 0.06464203396451805 0.9591234784736528 -0.2532155989032376 -0.126349010434943 0 0.005566227291016288 0 0 0 0 0 20 70 10 -10 30
0.02273690824823324 -0.09145589474759035 0.06306392558447137 0.9609529444786526 0.15393544538810805 -0.229942114620586 0 0.005566227291016288 0 0 0 0 0 20 70 10 0 -10
0.020419183046569436 -0.08964749991090373 0.06522819508377019 0.9769139936044176 0.014370048790430835 -0.213149266296751 0 0.005566227291016288 0 0 0 0 0 20 70 10 0 0
0.01828083195948864 -0.08732572426044215 0.06706204810914641 0.976297932029682 -0.12273559450425292 -0.17826491713589654 0 0.005566227291016288 0 0 0 0 0 20 70 10 0 10
0.01638682770271392 -0.0845611137744697 0.0685097639643984 0.9591234784736526 -0.2532155989032375 -0.12634901043494295 0 0.005566227291016288 0 0 0 0 0 20 70 10 0 20
0.014794718637174992 -0.08143766974364226 0.06952735453584385 0.9259124700169367 -0.37310539549892774 -0.058978984748282184 0 0.005566227291016288 0 0 0 0 0 20 70 10 0 30
0.01678302722519309 -0.08729708929203943 0.06874496385586748 0.9769139936044173 0.014370048790430901 -0.2131492662967508 0 0.005566227291016288 0 0 0 0 0 20 70 10 10 -10
0.014644676138112286 -0.08497531364157784 0.0705788168812437 0.976297932029682 -0.12273559450425292 -0.17826491713589654 0 0.005566227291016288 0 0 0 0 0 20 70 10 10 0
0.012750671881337574 -0.0822107031556054 0.07202653273649567 0.9591234784736526 -0.2532155989032374 -0.12634901043494287 0 0.005566227291016288 0 0 0 0 0 20 70 10 10 10
0.011158562815798648 -0.07908725912477796 0.07304412330794115 0.9259124700169363 -0.3731053954989276 -0.058978984748282066 0 0.005566227291016288 0 0 0 0 0 20 70 10 10 20
0.009916724369805847 -0.07569988581543328 0.0736006696209924 0.8776740063459098 -0.4787621934889277 0.021798155784474447 0 0.005566227291016288 0 0 0 0 0 20 70 10 10 30
0.011231190200609758 -0.0817965329975626 0.07363776918598866 0.9762979320296818 -0.12273559450425306 -0.1782649171358966 0 0.005566227291016288 0 0 0 0 0 20 70 10 20 -10
0.009337185943835043 -0.07903192251159015 0.07508548504124063 0.9591234784736526 -0.2532155989032375 -0.12634901043494295 0 0.005566227291016288 0 0 0 0 0 20 70 10 20 0
0.007745076878296123 -0.07590847848076271 0.0761030756126861 0.9259124700169362 -0.3731053954989276 -0.058978984748282164 0 0.005566227291016288 0 0 0 0 0 20 70 10 20 10
0.0065032384323033265 -0.07252110517141802 0.07665962192573736 0.8776740063459094 -0.4787621934889276 0.021798155784474492 0 0.005566227291016288 0 0 0 0 0 20 70 10 20 20
0.005649403238637576 -0.06897272620746694 0.07673821360229839 0.8158737887693758 -0.5669756645312312 0.11352803862344457 0 0.005566227291016288 0 0 0 0 0 20 70 10 20 30
0.0623835316692602 -0.07406849927342977 0.08404796593960694 0.5995484508492092 0.4145841192296928 -0.6845887247771972 0 0.005566227291016288 0 0 0 0 0 30 50 -10 -20 -10
0.0603851489834824 -0.07262967196122129 0.08674285871450614 0.6889661553090716 0.3088215601864743 -0.6557094933946315 0 0.005566227291016288 0 0 0 0 0 30 50 -10 -20 0
0.05815256576104812 -0.07080952277365407 0.08898536480173999 0.7703250936036868 0.20545124254593933 -0.6036464992245184 0 0.005566227291016288 0 0 0 0 0 30 50 -10 -20 10
0.0557536179134294 -0.0686633560227524 0.09070734678861071 0.8411532155625827 0.10761402110169085 -0.5299816499995712 0 0.005566227291016288 0 0 0 0 0 30 50 -10 -20 20
0.05326119625704997 -0.06625638189922967 0.09185648312381217 0.8992984445407973 0.018282630319289696 -0.4369532148872772 0 0.005566227291016288 0 0 0 0 0 30 50 -10 -20 30
0.0575396624334764 -0.07073937678804362 0.0911523612128606 0.6889661553090715 0.3088215601864743 -0.6557094933946312 0 0.005566227291016288 0 0 0 0 0 30 50 -10 -10 -10
0.055307079211042116 -0.0689192276004764 0.09339486730009444 0.770325093603687 0.20545124254593933 -0.6036464992245184 0 0.005566227291016288 0 0 0 0 0 30 50 -10 -10 0
0.05290813136342341 -0.06677306084957474 0.09511684928696518 0.8411532155625826 0.10761402110169092 -0.5299816499995709 0 0.005566227291016288 0 0 0 0 0 30 50 -10 -10 10
0.050415709707043975 -0.064366086726052 0.09626598562216662 0.8992984445407969 0.018282630319289735 -0.43695321488727684 0 0.005566227291016288 0 0 0 0 0 30 50 -10 -10 20
0.04790554521270669 -0.06177143992066375 0.09680736037964478 0.9429940671787325 -0.05982864069620586 -0.32738781581386367 0 0.005566227291016288 0 0 0 0 0 30 50 -10 -10 30
0.052057137455553175 -0.06641148313207242 0.09717148193467348 0.770325093603687 0.20545124254593933 -0.6036464992245184 0 0.005566227291016288 0 0 0 0 0 30 50 -10 0 -10
0.049658189607934465 -0.06426531638117075 0.0988934639215442 0.8411532155625829 0.10761402110169095 -0.5299816499995711 0 0.005566227291016288 0 0 0 0 0 30 50 -10 0 0
0.047165767951555033 -0.06185834225764801 0.10004260025674566 0.899298444540797 0.01828263031928979 -0.4369532148872769 0 0.005566227291016288 0 0 0 0 0 30 50 -10 0 10
0.04465560345721775 -0.05926369545225976 0.1005839750142238 0.9429940671787324 -0.05982864069620586 -0.32738781581386356 0 0.005566227291016288 0 0 0 0 0 30 50 -10 0 20
0.042203966202878536 -0.056560212995233096 0.10050113879592151 0.9709124140935871 -0.12434642050120036 -0.2046145419874097 0 0.005566227291016288 0 0 0 0 0 30 50 -10 0 30
0.04610254048265321 -0.061216319164232966 0.10192244016773536 0.8411532155625826 0.10761402110169097 -0.5299816499995709 0 0.005566227291016288 0 0 0 0 0 30 50 -10 10 -10
0.04361011882627378 -0.058809345040710226 0.10307157650293683 0.899298444540797 0.01828263031928979 -0.4369532148872769 0 0.005566227291016288 0 0 0 0 0 30 50 -10 10 0
0.0410999543319365 -0.05621469823532198 0.10361295126041496 0.942994067178732 -0.05982864069620577 -0.32738781581386345 0 0.005566227291016288 0 0 0 0 0 30 50 -10 10 10
0.03864831707759729 -0.053511215778295304 0.10353011504211267 0.9709124140935865 -0.1243464205012003 -0.20461454198740953 0 0.005566227291016288 0 0 0 0 0 30 50 -10 10 20
0.03632969882064093 -0.050781041616058835 0.10282558478460589 0.9822052004417178 -0.17331036900389074 -0.07236379720685746 0 0.005566227291016288 0 0 0 0 0 30 50 -10 10 30
0.03985679893062662 -0.055311737312808265 0.10526088045023549 0.899298444540797 0.018282630319289735 -0.4369532148872768 0 0.005566227291016288 0 0 0 0 0 30 50 -10 20 -10
0.03734663443628934 -0.05271709050742002 0.10580225520771364 0.9429940671787324 -0.05982864069620586 -0.32738781581386356 0 0.005566227291016288 0 0 0 0 0 30 50 -10 20 0
0.03489499718195013 -0.05001360805039334 0.10571941898941134 0.9709124140935866 -0.1243464205012002 -0.20461454198740947 0 0.005566227291016288 0 0 0 0 0 30 50 -10 20 10
0.03257637892499377 -0.047283433888156874 0.10501488873190457 0.9822052004417176 -0.1733103690038907 -0.07236379720685733 0 0.005566227291016288 0 0 0 0 0 30 50 -10 20 20
0.03046122970788044 -0.04460952298109538 0.10371007123055814 0.9765293006243632 -0.2052327414059764 0.06534604656974163 0 0.005566227291016288 0 0 0 0 0 30 50 -10 20 30
0.05554163726114631 -0.07877989240810139 0.0810529079173588 0.6993518801159551 0.4129298637617539 -0.5834346015768983 0 0.005566227291016288 0 0 0 0 0 30 50 0 -20 -10
0.05345920302769722 -0.0774096928971882 0.08371978350970091 0.7744940691200844 0.29551139515794833 -0.5593138753462437 0 0.005566227291016288 0 0 0 0 0 30 50 0 -20 0
0.05122542236080842 -0.07559052141892394 0.08596189044878325 0.8397522788077384 0.17899488765938434 -0.5126177907117843 0 0.005566227291016288 0 0 0 0 0 30 50 0 -20 10
0.04890816755569576 -0.0733776525781305 0.08771110344982265 0.8931436714998061 0.06692063638620824 -0.4447651845757797 0 0.005566227291016288 0 0 0 0 0 30 50 0 -20 20
0.046577847227025085 -0.07083832327476972 0.08891427356092704 0.9330459767466871 -0.03730603924895206 -0.357817724040597 0 0.005566227291016288 0 0 0 0 0 30 50 0 -20 30
0.050424978420490825 -0.07567350170240561 0.0880663733223219 0.774494069120084 0.2955113951579483 -0.5593138753462433 0 0.005566227291016288 0 0 0 0 0 30 50 0 -10 -10
0.04819119775360202 -0.07385433022414135 0.09030848026140424 0.8397522788077384 0.17899488765938437 -0.5126177907117843 0 0.005566227291016288 0 0 0 0 0 30 50 0 -10 0
0.045873942948489364 -0.0716414613833479 0.09205769326244365 0.8931436714998058 0.06692063638620825 -0.4447651845757794 0 0.005566227291016288 0 0 0 0 0 30 50 0 -10 10
0.043543622619818693 -0.06910213207998711 0.09326086337354803 0.9330459767466867 -0.037306039248952046 -0.35781772404059664 0 0.005566227291016288 0 0 0 0 0 30 50 0 -10 20
0.04127104237157767 -0.06631349854997898 0.09388143287972493 0.958246783194995 -0.1305182644481651 -0.254417263697059 0 0.005566227291016288 0 0 0 0 0 30 50 0 -10 30
0.04487769960274218 -0.07139847933525378 0.09406390943085965 0.8397522788077384 0.17899488765938437 -0.5126177907117843 0 0.005566227291016288 0 0 0 0 0 30 50 0 0 -10
0.04256044479762953 -0.06918561049446034 0.09581312243189906 0.8931436714998062 0.0669206363862083 -0.4447651845757797 0 0.005566227291016288 0 0 0 0 0 30 50 0 0 0
0.04023012446895886 -0.06664628119109955 0.09701629254300344 0.9330459767466868 -0.03730603924895205 -0.35781772404059664 0 0.005566227291016288 0 0 0 0 0 30 50 0 0 10
0.037957544220717836 -0.06385764766109141 0.09763686204918035 0.9582467831949949 -0.13051826444816497 -0.25441726369705897 0 0.005566227291016288 0 0 0 0 0 30 50 0 0 20
0.03581175525376819 -0.06090444112312856 0.09765597526000791 0.9679803770930222 -0.20988383291641427 -0.13770557420954754 0 0.005566227291016288 0 0 0 0 0 30 50 0 0 30
0.03906835206771917 -0.06608471969800614 0.09886328414321384 0.8931436714998058 0.06692063638620824 -0.4447651845757795 0 0.005566227291016288 0 0 0 0 0 30 50 0 10 -10
0.0367380317390485 -0.06354539039464535 0.10006645425431822 0.9330459767466868 -0.03730603924895205 -0.35781772404059664 0 0.005566227291016288 0 0 0 0 0 30 50 0 10 0
0.034465451490807486 -0.060756756864637204 0.10068702376049511 0.9582467831949945 -0.13051826444816494 -0.25441726369705897 0 0.005566227291016288 0 0 0 0 0 30 50 0 10 10
0.03231966252385784 -0.05780355032667435 0.10070613697132268 0.9679803770930215 -0.2098838329164142 -0.13770557420954738 0 0.005566227291016288 0 0 0 0 0 30 50 0 10 20
0.030365863550138712 -0.054775502467018185 0.10012321314156164 0.9619510081156123 -0.27299126201670754 -0.011228881204175478 0 0.005566227291016288 0 0 0 0 0 30 50 0 10 30
0.03317344990060175 -0.05989367868834831 0.10231867088735037 0.9330459767466867 -0.03730603924895213 -0.3578177240405966 0 0.005566227291016288 0 0 0 0 0 30 50 0 20 -10
0.030900869652360732 -0.05710504515834017 0.10293924039352728 0.9582467831949949 -0.13051826444816497 -0.25441726369705897 0 0.005566227291016288 0 0 0 0 0 30 50 0 20 0
0.02875508068541109 -0.05415183862037731 0.10295835360435482 0.9679803770930215 -0.2098838329164142 -0.13770557420954732 0 0.005566227291016288 0 0 0 0 0 30 50 0 20 10
0.026801281711691965 -0.05112379076072114 0.1023754297745938 0.9619510081156121 -0.2729912620167074 -0.011228881204175383 0 0.005566227291016288 0 0 0 0 0 30 50 0 20 20
0.02509883792434983 -0.04811290728132115 0.10120818074983778 0.9403418755881372 -0.3179230644497324 0.12116988500238349 0 0.005566227291016288 0 0 0 0 0 30 50 0 20 30
0.04856273269038862 -0.0823736733671982 0.07700831321230683 0.7886805473013273 0.3899314450500333 -0.4753278041466618 0 0.005566227291016288 0 0 0 0 0 30 50 10 -20 -10
0.04639265870844577 -0.08105914195444058 0.07963300186796596 0.8489377922583567 0.263058173796799 -0.4583722079265018 0 0.005566227291016288 0 0 0 0 0 30 50 10 -20 0
0.04415762947762523 -0.07924076355443932 0.0818745077888067 0.8974079255241606 0.13587800851558776 -0.41975735959417804 0 0.005566227291016288 0 0 0 0 0 30 50 10 -20 10
0.0419255552301261 -0.07697378867473462 0.08366472395168106 0.9326182066265287 0.012255254172200669 -0.3606565517762122 0 0.005566227291016288 0 0 0 0 0 30 50 10 -20 20
0.039764256412474594 -0.07432709819990166 0.08494925554437319 0.9534987889914277 -0.10405387439877065 -0.28286553261170144 0 0.005566227291016288 0 0 0 0 0 30 50 10 -20 30
0.043161638725990194 -0.07944795367733194 0.08388486076022454 0.8489377922583565 0.26305817379679886 -0.45837220792650163 0 0.005566227291016288 0 0 0 0 0 30 50 10 -10 -10
0.04092660949516965 -0.07762957527733069 0.0861263666810653 0.8974079255241606 0.1358780085155878 -0.419757359594178 0 0.005566227291016288 0 0 0 0 0 30 50 10 -10 0
0.03869453524767053 -0.07536260039762599 0.08791658284393965 0.9326182066265284 0.012255254172200651 -0.36065655177621203 0 0.005566227291016288 0 0 0 0 0 30 50 10 -10 10
0.036533236430019024 -0.07271590992279303 0.08920111443663177 0.9534987889914271 -0.10405387439877081 -0.2828655326117013 0 0.005566227291016288 0 0 0 0 0 30 50 10 -10 20
0.0345083830131195 -0.06976992220361959 0.08994093161670205 0.9594152266897836 -0.20951538318095633 -0.1887479428538041 0 0.005566227291016288 0 0 0 0 0 30 50 10 -10 30
0.03754684169598331 -0.07521581836236682 0.08984989578798055 0.8974079255241606 0.1358780085155878 -0.419757359594178 0 0.005566227291016288 0 0 0 0 0 30 50 10 0 -10
0.035314767448484184 -0.07294884348266212 0.09164011195085492 0.9326182066265288 0.012255254172200664 -0.36065655177621214 0 0.005566227291016288 0 0 0 0 0 30 50 10 0 0
0.03315346863083268 -0.07030215300782916 0.09292464354354703 0.9534987889914273 -0.10405387439877076 -0.2828655326117013 0 0.005566227291016288 0 0 0 0 0 30 50 10 0 10
0.031128615213933158 -0.06735616528865572 0.09366446072361731 0.9594152266897837 -0.20951538318095628 -0.18874794285380406 0 0.005566227291016288 0 0 0 0 0 30 50 10 0 20
0.029301731344232838 -0.06420039267124719 0.09383708452041487 0.9501877517559953 -0.3009248775961077 -0.08116349784151579 0 0.005566227291016288 0 0 0 0 0 30 50 10 0 30
0.03188894436690034 -0.06980585871228422 0.09472217372470984 0.9326182066265284 0.012255254172200563 -0.3606565517762121 0 0.005566227291016288 0 0 0 0 0 30 50 10 10 -10
0.02972764554924883 -0.06715916823745126 0.09600670531740196 0.9534987889914273 -0.10405387439877076 -0.2828655326117013 0 0.005566227291016288 0 0 0 0 0 30 50 10 10 0
0.02770279213234931 -0.06421318051827782 0.09674652249747223 0.9594152266897834 -0.2095153831809563 -0.18874794285380395 0 0.005566227291016288 0 0 0 0 0 30 50 10 10 10
0.025875908262648996 -0.06105740790086929 0.09691914629426979 0.9501877517559948 -0.3009248775961077 -0.08116349784151565 0 0.005566227291016288 0 0 0 0 0 30 50 10 10 20
0.024302502882080884 -0.057787736939307624 0.09651933162108078 0.9260967363465971 -0.3755049264118566 0.03661890350382131 0 0.005566227291016288 0 0 0 0 0 30 50 10 10 30
0.026359859086051263 -0.06338245361348024 0.09835365287079652 0.9534987889914271 -0.10405387439877081 -0.2828655326117013 0 0.005566227291016288 0 0 0 0 0 30 50 10 20 -10
0.024335005669151737 -0.06043646589430682 0.0990934700508668 0.9594152266897837 -0.20951538318095628 -0.18874794285380406 0 0.005566227291016288 0 0 0 0 0 30 50 10 20 0
0.022508121799451428 -0.05728069327689829 0.09926609384766434 0.9501877517559947 -0.30092487759610775 -0.08116349784151576 0 0.005566227291016288 0 0 0 0 0 30 50 10 20 10
0.020934716418883316 -0.05401102231533662 0.09886627917447534 0.9260967363465968 -0.3755049264118566 0.03661890350382135 0 0.005566227291016288 0 0 0 0 0 30 50 10 20 20
0.019662596653754437 -0.05072680030725553 0.09790617419782864 0.8878741737741621 -0.4309894525842623 0.1610205025180998 0 0.005566227291016288 0 0 0 0 0 30 50 10 20 30
0.0503616788619073 -0.08207016237768172 0.07855944369861131 0.699351880115955 0.41292986376175395 -0.5834346015768983 0 0.005566227291016288 0 0 0 0 0 30 60 -10 -20 -10
0.048279244628458215 -0.08069996286676853 0.08122631929095343 0.7744940691200841 0.2955113951579484 -0.5593138753462437 0 0.005566227291016288 0 0 0 0 0 30 60 -10 -20 0
0.046045463961569416 -0.07888079138850426 0.08346842623003577 0.8397522788077382 0.17899488765938443 -0.5126177907117844 0 0.005566227291016288 0 0 0 0 0 30 60 -10 -20 10
0.04372820915645676 -0.07666792254771082 0.08521763923107517 0.8931436714998059 0.06692063638620838 -0.4447651845757797 0 0.005566227291016288 0 0 0 0 0 30 60 -10 -20 20
0.041397888827786083 -0.07412859324435005 0.08642080934217956 0.933045976746687 -0.03730603924895191 -0.3578177240405968 0 0.005566227291016288 0 0 0 0 0 30 60 -10 -20 30
0.04524502002125181 -0.07896377167198591 0.08557290910357442 0.7744940691200838 0.29551139515794833 -0.5593138753462434 0 0.005566227291016288 0 0 0 0 0 30 60 -10 -10 -10
0.04301123935436301 -0.07714460019372166 0.08781501604265675 0.8397522788077384 0.17899488765938446 -0.5126177907117841 0 0.005566227291016288 0 0 0 0 0 30 60 -10 -10 0
0.040693984549250356 -0.07493173135292822 0.08956422904369615 0.8931436714998056 0.06692063638620839 -0.4447651845757794 0 0.005566227291016288 0 0 0 0 0 30 60 -10 -10 10
0.038363664220579685 -0.07239240204956743 0.09076739915480053 0.9330459767466864 -0.0373060392489519 -0.3578177240405966 0 0.005566227291016288 0 0 0 0 0 30 60 -10 -10 20
0.036091083972338664 -0.0696037685195593 0.09138796866097744 0.9582467831949949 -0.13051826444816475 -0.2544172636970591 0 0.005566227291016288 0 0 0 0 0 30 60 -10 -10 30
0.03969774120350318 -0.0746887493048341 0.09157044521211216 0.8397522788077384 0.17899488765938446 -0.5126177907117841 0 0.005566227291016288 0 0 0 0 0 30 60 -10 0 -10
0.03738048639839052 -0.07247588046404066 0.09331965821315158 0.8931436714998061 0.06692063638620842 -0.4447651845757797 0 0.005566227291016288 0 0 0 0 0 30 60 -10 0 0
0.03505016606971985 -0.06993655116067987 0.09452282832425594 0.9330459767466865 -0.037306039248951844 -0.35781772404059664 0 0.005566227291016288 0 0 0 0 0 30 60 -10 0 10
0.032777585821478834 -0.06714791763067174 0.09514339783043285 0.9582467831949948 -0.13051826444816478 -0.25441726369705897 0 0.005566227291016288 0 0 0 0 0 30 60 -10 0 20
0.030631796854529183 -0.06419471109270888 0.09516251104126042 0.9679803770930222 -0.20988383291641402 -0.13770557420954746 0 0.005566227291016288 0 0 0 0 0 30 60 -10 0 30
0.03388839366848016 -0.06937498966758644 0.09636981992446635 0.8931436714998057 0.06692063638620842 -0.4447651845757797 0 0.005566227291016288 0 0 0 0 0 30 60 -10 10 -10
0.031558073339809485 -0.06683566036422565 0.09757299003557073 0.9330459767466865 -0.037306039248951844 -0.35781772404059664 0 0.005566227291016288 0 0 0 0 0 30 60 -10 10 0
0.029285493091568474 -0.06404702683421752 0.09819355954174763 0.9582467831949942 -0.13051826444816467 -0.2544172636970589 0 0.005566227291016288 0 0 0 0 0 30 60 -10 10 10
0.027139704124618826 -0.06109382029625467 0.09821267275257518 0.9679803770930215 -0.2098838329164139 -0.13770557420954735 0 0.005566227291016288 0 0 0 0 0 30 60 -10 10 20
0.0251859051508997 -0.0580657724365985 0.09762974892281415 0.9619510081156123 -0.27299126201670715 -0.011228881204175395 0 0.005566227291016288 0 0 0 0 0 30 60 -10 10 30
0.027993491501362745 -0.06318394865792863 0.09982520666860288 0.9330459767466865 -0.03730603924895192 -0.35781772404059664 0 0.005566227291016288 0 0 0 0 0 30 60 -10 20 -10
0.02572091125312173 -0.0603953151279205 0.10044577617477979 0.9582467831949948 -0.13051826444816478 -0.25441726369705897 0 0.005566227291016288 0 0 0 0 0 30 60 -10 20 0
0.023575122286172086 -0.057442108589957644 0.10046488938560734 0.9679803770930215 -0.20988383291641396 -0.13770557420954735 0 0.005566227291016288 0 0 0 0 0 30 60 -10 20 10
0.02162132331245296 -0.05441406073030147 0.0998819655558463 0.9619510081156122 -0.2729912620167071 -0.01122888120417535 0 0.005566227291016288 0 0 0 0 0 30 60 -10 20 20
0.019918879525110827 -0.05140317725090148 0.09871471653109029 0.9403418755881372 -0.31792306444973206 0.12116988500238352 0 0.005566227291016288 0 0 0 0 0 30 60 -10 20 30
0.04338277429114961 -0.08566394333677854 0.07451484899355934 0.7886805473013274 0.38993144505003347 -0.47532780414666187 0 0.005566227291016288 0 0 0 0 0 30 60 0 -20 -10
0.04121270030920677 -0.0843494119240209 0.07713953764921846 0.848937792258357 0.26305817379679913 -0.45837220792650196 0 0.005566227291016288 0 0 0 0 0 30 60 0 -20 0
0.038977671078386227 -0.08253103352401966 0.0793810435700592 0.8974079255241606 0.13587800851558796 -0.4197573595941782 0 0.005566227291016288 0 0 0 0 0 30 60 0 -20 10
0.0367455968308871 -0.08026405864431496 0.08117125973293357 0.932618206626529 0.012255254172200863 -0.36065655177621225 0 0.005566227291016288 0 0 0 0 0 30 60 0 -20 20
0.03458429801323559 -0.07761736816948199 0.0824557913256257 0.9534987889914279 -0.10405387439877052 -0.2828655326117015 0 0.005566227291016288 0 0 0 0 0 30 60 0 -20 30
0.03798168032675119 -0.08273822364691229 0.08139139654147708 0.8489377922583565 0.263058173796799 -0.45837220792650185 0 0.005566227291016288 0 0 0 0 0 30 60 0 -10 -10
0.03574665109593064 -0.08091984524691104 0.08363290246231782 0.8974079255241607 0.13587800851558798 -0.41975735959417815 0 0.005566227291016288 0 0 0 0 0 30 60 0 -10 0
0.033514576848431524 -0.07865287036720633 0.08542311862519218 0.9326182066265286 0.012255254172200846 -0.3606565517762121 0 0.005566227291016288 0 0 0 0 0 30 60 0 -10 10
0.031353278030780016 -0.07600617989237338 0.08670765021788429 0.9534987889914275 -0.10405387439877054 -0.2828655326117014 0 0.005566227291016288 0 0 0 0 0 30 60 0 -10 20
0.02932842461388049 -0.07306019217319995 0.08744746739795457 0.9594152266897841 -0.20951538318095606 -0.18874794285380417 0 0.005566227291016288 0 0 0 0 0 30 60 0 -10 30
0.03236688329674431 -0.07850608833194715 0.08735643156923306 0.8974079255241607 0.13587800851558798 -0.41975735959417815 0 0.005566227291016288 0 0 0 0 0 30 60 0 0 -10
0.030134809049245183 -0.07623911345224246 0.08914664773210743 0.9326182066265291 0.012255254172200858 -0.3606565517762123 0 0.005566227291016288 0 0 0 0 0 30 60 0 0 0
0.027973510231593675 -0.07359242297740949 0.09043117932479953 0.9534987889914275 -0.10405387439877056 -0.2828655326117014 0 0.005566227291016288 0 0 0 0 0 30 60 0 0 10
0.025948656814694153 -0.07064643525823605 0.09117099650486982 0.959415226689784 -0.2095153831809561 -0.18874794285380417 0 0.005566227291016288 0 0 0 0 0 30 60 0 0 20
0.024121772944993833 -0.06749066264082752 0.09134362030166737 0.9501877517559956 -0.3009248775961076 -0.08116349784151579 0 0.005566227291016288 0 0 0 0 0 30 60 0 0 30
0.02670898596766133 -0.07309612868186456 0.09222870950596238 0.9326182066265286 0.012255254172200757 -0.3606565517762122 0 0.005566227291016288 0 0 0 0 0 30 60 0 10 -10
0.024547687150009823 -0.0704494382070316 0.09351324109865448 0.9534987889914275 -0.10405387439877056 -0.2828655326117014 0 0.005566227291016288 0 0 0 0 0 30 60 0 10 0
0.022522833733110304 -0.06750345048785816 0.09425305827872477 0.9594152266897835 -0.20951538318095603 -0.18874794285380408 0 0.005566227291016288 0 0 0 0 0 30 60 0 10 10
0.020695949863409988 -0.06434767787044963 0.09442568207552232 0.950187751755995 -0.3009248775961075 -0.08116349784151575 0 0.005566227291016288 0 0 0 0 0 30 60 0 10 20
0.019122544482841876 -0.06107800690888797 0.09402586740233332 0.9260967363465974 -0.37550492641185645 0.03661890350382127 0 0.005566227291016288 0 0 0 0 0 30 60 0 10 30
0.021179900686812254 -0.06667272358306059 0.09586018865204904 0.9534987889914275 -0.10405387439877062 -0.28286553261170144 0 0.005566227291016288 0 0 0 0 0 30 60 0 20 -10
0.019155047269912726 -0.06372673586388715 0.0966000058321193 0.959415226689784 -0.2095153831809561 -0.18874794285380417 0 0.005566227291016288 0 0 0 0 0 30 60 0 20 0
0.017328163400212416 -0.06057096324647862 0.09677262962891686 0.950187751755995 -0.3009248775961076 -0.08116349784151583 0 0.005566227291016288 0 0 0 0 0 30 60 0 20 10
0.015754758019644308 -0.057301292284916955 0.09637281495572786 0.9260967363465971 -0.37550492641185645 0.03661890350382134 0 0.005566227291016288 0 0 0 0 0 30 60 0 20 20
0.014482638254515425 -0.05401707027683586 0.09541270997908116 0.8878741737741624 -0.43098945258426213 0.16102050251809988 0 0.005566227291016288 0 0 0 0 0 30 60 0 20 30
0.03647891004163448 -0.08803091690439929 0.06954361056915288 0.8648202460553852 0.34628765840932546 -0.36355310282172665 0 0.005566227291016288 0 0 0 0 0 30 60 10 -20 -10
0.03422027099978553 -0.08675740243966448 0.0721132243627266 0.9100353898666744 0.2124479708119625 -0.3559515526210068 0 0.005566227291016288 0 0 0 0 0 30 60 10 -20 0
0.031983980022539285 -0.08493960838960457 0.07435394565687083 0.9415401961026401 0.07741068966914051 -0.32788672308156286 0 0.005566227291016288 0 0 0 0 0 30 60 10 -20 10
0.029837985679621537 -0.08263276750658247 0.07619769126892265 0.9583774071680042 -0.05472114556377716 -0.28021134984746193 0 0.005566227291016288 0 0 0 0 0 30 60 10 -20 20
0.02784749292321629 -0.079906971983511 0.07758843992144017 0.9600354329245856 -0.17993277593517312 -0.2143740250095192 0 0.005566227291016288 0 0 0 0 0 30 60 10 -20 30
0.030790377851925697 -0.08523831786910972 0.07624141245107295 0.9100353898666742 0.21244797081196243 -0.35595155262100664 0 0.005566227291016288 0 0 0 0 0 30 60 10 -10 -10
0.02855408687467945 -0.08342052381904982 0.07848213374521718 0.9415401961026402 0.07741068966914053 -0.32788672308156275 0 0.005566227291016288 0 0 0 0 0 30 60 10 -10 0
0.026408092531761698 -0.08111368293602772 0.080325879357269 0.9583774071680041 -0.05472114556377708 -0.2802113498474618 0 0.005566227291016288 0 0 0 0 0 30 60 10 -10 10
