# .PCD v0.7 - Point Cloud Data file format
VERSION 0.7
FIELDS x y z normal_x normal_y normal_z curvature xx xy xz zx zy zz a0 a1 a2 a3
SIZE 4 4 4 4 4 4 4 4 4 4 4 4 4 4 4 4 4
TYPE F F F F F F F F F F F F F F F F F
COUNT 1 1 1 1 1 1 1 1 1 1 1 1 1 1 1 1 1
WIDTH 290
HEIGHT 1
VIEWPOINT 0 0 0 1 0 0 0
POINTS 290
DATA ascii
0.03861511173553455 -0.07501903982475713 0.0981910550891997 0.21571369754168593 0.7519025476341856 0.6229848954253574 0 0.007430141386348627 0 0 0 0 0 -10 20 20 30
0.038127104045045636 -0.07492909179442092 0.09243112553133034 0.20526918005024283 0.631060279327391 0.7480825542350021 0 0.007430141386348627 0 0 0 0 0 -10 20 20 40
0.0380394555524411 -0.0787802466563666 0.09922066718515354 0.2204262885966236 0.8497530678396528 0.47888620294036954 0 0.007430141386348627 0 0 0 0 0 -10 20 30 10
0.03738383803597155 -0.07968019637551552 0.09354763564629738 0.21571369754168593 0.7519025476341857 0.6229848954253573 0 0.007430141386348627 0 0 0 0 0 -10 20 30 20
0.03689583034548263 -0.07959024834517933 0.08778770608842801 0.20526918005024283 0.6310602793273911 0.7480825542350021 0 0.007430141386348627 0 0 0 0 0 -10 20 30 30
0.036590260347706065 -0.07851313559074388 0.08211589105649632 0.18941008750109098 0.4908979940926323 0.8503781503088421 0 0.007430141386348627 0 0 0 0 0 -10 20 30 40
0.03624181412564676 -0.08346113814384656 0.08814356124179727 0.21571369754168593 0.7519025476341857 0.6229848954253574 0 0.007430141386348627 0 0 0 0 0 -10 20 40 10
0.035753806435157846 -0.08337119011351038 0.0823836316839279 0.20526918005024283 0.6310602793273911 0.7480825542350021 0 0.007430141386348627 0 0 0 0 0 -10 20 40 20
0.03544823643738128 -0.08229407735907493 0.07671181665199621 0.18941008750109098 0.4908979940926323 0.8503781503088422 0 0.007430141386348627 0 0 0 0 0 -10 20 40 30
0.03533438872207361 -0.08026252740653839 0.07130045137567056 0.16861829039624826 0.33567445204122903 0.9267634837242434 0 0.007430141386348627 0 0 0 0 0 -10 20 40 40
0.038251587573681405 -0.08065789568811647 0.10544406638597573 0.21926376352053767 0.9216387014021012 0.32016484263373796 0 0.007430141386348627 0 0 0 0 0 -10 30 10 10
0.03744828083771065 -0.0825203986399307 0.10003030505874838 0.22042628859662358 0.8497530678396528 0.47888620294036943 0 0.007430141386348627 0 0 0 0 0 -10 30 10 20
0.0367926633212411 -0.08342034835907963 0.0943572735198922 0.2157136975416859 0.7519025476341856 0.6229848954253574 0 0.007430141386348627 0 0 0 0 0 -10 30 10 30
0.036304655630752185 -0.08333040032874343 0.08859734396202283 0.2052691800502428 0.631060279327391 0.7480825542350019 0 0.007430141386348627 0 0 0 0 0 -10 30 10 40
0.036217007138147655 -0.08718155519068911 0.09538688561584605 0.22042628859662358 0.8497530678396528 0.47888620294036954 0 0.007430141386348627 0 0 0 0 0 -10 30 20 10
0.035561389621678104 -0.08808150490983804 0.08971385407698988 0.2157136975416859 0.7519025476341857 0.6229848954253573 0 0.007430141386348627 0 0 0 0 0 -10 30 20 20
0.03507338193118919 -0.08799155687950184 0.08395392451912051 0.2052691800502428 0.6310602793273911 0.7480825542350021 0 0.007430141386348627 0 0 0 0 0 -10 30 20 30
0.03476781193341262 -0.08691444412506638 0.07828210948718882 0.18941008750109095 0.4908979940926323 0.8503781503088421 0 0.007430141386348627 0 0 0 0 0 -10 30 20 40
0.03441936571135332 -0.09186244667816906 0.08430977967248977 0.2157136975416859 0.7519025476341857 0.6229848954253572 0 0.007430141386348627 0 0 0 0 0 -10 30 30 10
0.0339313580208644 -0.09177249864783288 0.07854985011462041 0.2052691800502428 0.6310602793273911 0.7480825542350018 0 0.007430141386348627 0 0 0 0 0 -10 30 30 20
0.033625788023087834 -0.09069538589339741 0.07287803508268871 0.18941008750109098 0.4908979940926323 0.850378150308842 0 0.007430141386348627 0 0 0 0 0 -10 30 30 30
0.033511940307780166 -0.08866383594086089 0.06746666980636308 0.16861829039624826 0.33567445204122914 0.9267634837242432 0 0.007430141386348627 0 0 0 0 0 -10 30 30 40
0.03291328371840107 -0.09455834363135468 0.07254932081470968 0.20526918005024278 0.631060279327391 0.7480825542350021 0 0.007430141386348627 0 0 0 0 0 -10 30 40 10
0.032607713720624494 -0.09348123087691922 0.06687750578277797 0.18941008750109098 0.49089799409263224 0.8503781503088422 0 0.007430141386348627 0 0 0 0 0 -10 30 40 20
0.03249386600531684 -0.09144968092438269 0.06146614050645234 0.16861829039624826 0.3356744520412291 0.9267634837242433 0 0.007430141386348627 0 0 0 0 0 -10 30 40 30
0.03257519977769798 -0.088525421391039 0.05647964658137092 0.1435255369695884 0.17010604195151122 0.9749176247782225 0 0.007430141386348627 0 0 0 0 0 -10 30 40 40
0.0344126310843272 -0.09477494582357189 0.09012515299382412 0.2204262885966235 0.8497530678396527 0.4788862029403695 0 0.007430141386348627 0 0 0 0 0 -10 40 10 10
0.033757013567857645 -0.09567489554272082 0.08445212145496796 0.21571369754168584 0.7519025476341856 0.6229848954253574 0 0.007430141386348627 0 0 0 0 0 -10 40 10 20
0.03326900587736874 -0.09558494751238461 0.07869219189709858 0.20526918005024278 0.631060279327391 0.748082554235002 0 0.007430141386348627 0 0 0 0 0 -10 40 10 30
0.03296343587959217 -0.09450783475794917 0.07302037686516691 0.18941008750109098 0.49089799409263213 0.8503781503088421 0 0.007430141386348627 0 0 0 0 0 -10 40 10 40
0.032614989657532865 -0.09945583731105184 0.07904804705046785 0.21571369754168584 0.7519025476341857 0.6229848954253573 0 0.007430141386348627 0 0 0 0 0 -10 40 20 10
0.03212698196704395 -0.09936588928071569 0.07328811749259849 0.20526918005024278 0.6310602793273911 0.7480825542350021 0 0.007430141386348627 0 0 0 0 0 -10 40 20 20
0.031821411969267376 -0.09828877652628022 0.06761630246066677 0.18941008750109095 0.4908979940926323 0.8503781503088421 0 0.007430141386348627 0 0 0 0 0 -10 40 20 30
0.031707564253959715 -0.09625722657374368 0.06220493718434113 0.16861829039624826 0.33567445204122903 0.9267634837242432 0 0.007430141386348627 0 0 0 0 0 -10 40 20 40
0.03110890766458061 -0.10215173426423745 0.06728758819268774 0.20526918005024275 0.6310602793273908 0.748082554235002 0 0.007430141386348627 0 0 0 0 0 -10 40 30 10
0.030803337666804043 -0.101074621509802 0.061615773160756046 0.18941008750109095 0.4908979940926322 0.850378150308842 0 0.007430141386348627 0 0 0 0 0 -10 40 30 20
0.03068948995149638 -0.09904307155726547 0.056204407884430416 0.16861829039624823 0.33567445204122903 0.9267634837242433 0 0.007430141386348627 0 0 0 0 0 -10 40 30 30
0.03077082372387752 -0.09611881202392177 0.05121791395934899 0.14352553696958842 0.17010604195151116 0.9749176247782225 0 0.007430141386348627 0 0 0 0 0 -10 40 30 40
0.029940146644712055 -0.10278072321839583 0.05520111201179813 0.18941008750109095 0.49089799409263213 0.8503781503088422 0 0.007430141386348627 0 0 0 0 0 -10 40 40 10
0.029826298929404384 -0.1007491732658593 0.04978974673547249 0.16861829039624826 0.33567445204122903 0.9267634837242434 0 0.007430141386348627 0 0 0 0 0 -10 40 40 20
0.029907632701785532 -0.0978249137325156 0.04480325281039108 0.14352553696958842 0.1701060419515111 0.9749176247782226 0 0.007430141386348627 0 0 0 0 0 -10 40 40 30
0.030181676676338552 -0.09409679676453872 0.04039314233117984 0.11489425783643449 -0.0007765238176035612 0.9933774342620255 0 0.007430141386348627 0 0 0 0 0 -10 40 40 40
0.030883511017522396 -0.10601058871055584 0.0725182384588864 0.21571369754168573 0.7519025476341855 0.6229848954253573 0 0.007430141386348627 0 0 0 0 0 -10 50 10 10
0.03039550332703348 -0.10592064068021965 0.06675830890101704 0.2052691800502427 0.6310602793273907 0.748082554235002 0 0.007430141386348627 0 0 0 0 0 -10 50 10 20
0.030089933329256913 -0.1048435279257842 0.06108649386908536 0.1894100875010909 0.49089799409263213 0.850378150308842 0 0.007430141386348627 0 0 0 0 0 -10 50 10 30
0.02997608561394925 -0.10281197797324763 0.055675128592759714 0.16861829039624818 0.3356744520412288 0.9267634837242431 0 0.007430141386348627 0 0 0 0 0 -10 50 10 40
0.029377429024570148 -0.10870648566374146 0.0607577796011063 0.20526918005024267 0.6310602793273907 0.748082554235002 0 0.007430141386348627 0 0 0 0 0 -10 50 20 10
0.02907185902679358 -0.107629372909306 0.05508596456917462 0.1894100875010909 0.4908979940926321 0.850378150308842 0 0.007430141386348627 0 0 0 0 0 -10 50 20 20
0.02895801131148592 -0.10559782295676945 0.04967459929284898 0.1686182903962482 0.3356744520412289 0.9267634837242432 0 0.007430141386348627 0 0 0 0 0 -10 50 20 30
0.029039345083867057 -0.10267356342342579 0.044688105367767586 0.14352553696958836 0.17010604195151094 0.9749176247782223 0 0.007430141386348627 0 0 0 0 0 -10 50 20 40
0.02820866800470159 -0.10933547461789983 0.048671303420216715 0.18941008750109087 0.49089799409263196 0.850378150308842 0 0.007430141386348627 0 0 0 0 0 -10 50 30 10
0.028094820289393925 -0.1073039246653633 0.043259938143891064 0.16861829039624818 0.335674452041229 0.9267634837242432 0 0.007430141386348627 0 0 0 0 0 -10 50 30 20
0.02817615406177507 -0.1043796651320196 0.038273444218809675 0.14352553696958836 0.17010604195151105 0.9749176247782223 0 0.007430141386348627 0 0 0 0 0 -10 50 30 30
0.02845019803632809 -0.1006515481640427 0.03386333373959842 0.11489425783643446 -0.0007765238176036172 0.9933774342620253 0 0.007430141386348627 0 0 0 0 0 -10 50 30 40
0.027412740170083813 -0.10787844406194264 0.036626051378921914 0.16861829039624818 0.33567445204122887 0.9267634837242431 0 0.007430141386348627 0 0 0 0 0 -10 50 40 10
0.027494073942464954 -0.10495418452859896 0.031639557453840506 0.14352553696958836 0.170106041951511 0.9749176247782224 0 0.007430141386348627 0 0 0 0 0 -10 50 40 20
0.027768117917017977 -0.10122606756062207 0.02722944697462927 0.11489425783643445 -0.0007765238176036723 0.9933774342620251 0 0.007430141386348627 0 0 0 0 0 -10 50 40 30
0.028226545406249026 -0.09680737010556571 0.02352971891657544 0.08359439992512112 -0.17178106497597104 0.981582020205601 0 0.007430141386348627 0 0 0 0 0 -10 50 40 40
0.054396183596878 -0.04633026695509662 0.12673897126614894 0.0271295446541683 0.9996110275935999 -0.006465422967787359 0 0.007430141386348627 0 0 0 0 0 0 10 10 10
0.05400512772097143 -0.049975961842629965 0.12226918214867517 0.04226349109582051 0.9851325362861355 0.16651637650653744 0 0.007430141386348627 0 0 0 0 0 0 10 10 20
0.05356483732695779 -0.052787134852075514 0.11723663991381424 0.056948395086714745 0.9407212913647336 0.33436559727959947 0 0.007430141386348627 0 0 0 0 0 0 10 10 30
0.05308869041566151 -0.05467836991406344 0.11179425581078316 0.07073806325000764 0.8677267060331563 0.4919822257140134 0 0.007430141386348627 0 0 0 0 0 0 10 10 40
0.053758579714177156 -0.056042388338924276 0.11945112553426145 0.042263491095820505 0.9851325362861356 0.1665163765065375 0 0.007430141386348627 0 0 0 0 0 0 10 20 10
0.05331828932016353 -0.05885356134836983 0.11441858329940051 0.05694839508671474 0.9407212913647336 0.33436559727959964 0 0.007430141386348627 0 0 0 0 0 0 10 20 20
0.05284214240886725 -0.06074479641035775 0.10897619919636944 0.07073806325000763 0.8677267060331564 0.49198222571401334 0 0.007430141386348627 0 0 0 0 0 0 10 20 30
0.0523446064632461 -0.06165862930454068 0.10328933731215957 0.08321350349646633 0.7683666838296612 0.6345771603126613 0 0.007430141386348627 0 0 0 0 0 0 10 20 40
0.05298367498867665 -0.06433660556033294 0.1105939239870619 0.05694839508671473 0.9407212913647336 0.33436559727959947 0 0.007430141386348627 0 0 0 0 0 0 10 30 10
0.05250752807738037 -0.06622784062232087 0.10515153988403082 0.07073806325000764 0.8677267060331564 0.49198222571401334 0 0.007430141386348627 0 0 0 0 0 0 10 30 20
0.052009992131759226 -0.06714167351650378 0.09946467799982096 0.08321350349646635 0.7683666838296613 0.6345771603126613 0 0.007430141386348627 0 0 0 0 0 0 10 30 30
0.051506184529755576 -0.0670503378928137 0.09370613075509304 0.09399565588707953 0.6456602287503046 0.7578177261442822 0 0.007430141386348627 0 0 0 0 0 0 10 30 40
0.05209501450834009 -0.07096090302612652 0.10043648821160177 0.07073806325000764 0.8677267060331563 0.4919822257140134 0 0.007430141386348627 0 0 0 0 0 0 10 40 10
0.05159747856271894 -0.07187473592030943 0.0947496263273919 0.08321350349646635 0.7683666838296612 0.6345771603126613 0 0.007430141386348627 0 0 0 0 0 0 10 40 20
0.05109367096071529 -0.07178340029661934 0.08899107908266397 0.09399565588707953 0.6456602287503045 0.7578177261442822 0 0.007430141386348627 0 0 0 0 0 0 10 40 30
0.050598899641377065 -0.07068967134176403 0.0833358170214836 0.10275691017749086 0.5033357143402102 0.8579593209788177 0 0.007430141386348627 0 0 0 0 0 0 10 40 40
0.05354624939994736 -0.06513447448449615 0.1170241789357633 0.042263491095820505 0.9851325362861356 0.16651637650653742 0 0.007430141386348627 0 0 0 0 0 0 20 10 10
0.05310595900593372 -0.0679456474939417 0.11199163670090237 0.05694839508671474 0.9407212913647336 0.3343655972795996 0 0.007430141386348627 0 0 0 0 0 0 20 10 20
0.05262981209463744 -0.06983688255592962 0.1065492525978713 0.07073806325000763 0.8677267060331564 0.4919822257140133 0 0.007430141386348627 0 0 0 0 0 0 20 10 30
0.0521322761490163 -0.07075071545011255 0.10086239071366143 0.08321350349646633 0.7683666838296612 0.6345771603126613 0 0.007430141386348627 0 0 0 0 0 0 20 10 40
0.05277134467444684 -0.07342869170590481 0.10816697738856379 0.05694839508671474 0.9407212913647336 0.33436559727959964 0 0.007430141386348627 0 0 0 0 0 0 20 20 10
0.052295197763150565 -0.07531992676789273 0.10272459328553271 0.07073806325000763 0.8677267060331564 0.4919822257140133 0 0.007430141386348627 0 0 0 0 0 0 20 20 20
0.05179766181752942 -0.07623375966207566 0.09703773140132285 0.08321350349646633 0.7683666838296613 0.6345771603126614 0 0.007430141386348627 0 0 0 0 0 0 20 20 30
0.05129385421552577 -0.07614242403838556 0.0912791841565949 0.09399565588707955 0.6456602287503046 0.7578177261442824 0 0.007430141386348627 0 0 0 0 0 0 20 20 40
0.05188268419411028 -0.0800529891716984 0.09800954161310363 0.07073806325000763 0.8677267060331564 0.49198222571401334 0 0.007430141386348627 0 0 0 0 0 0 20 30 10
0.05138514824848914 -0.08096682206588131 0.09232267972889377 0.08321350349646633 0.7683666838296613 0.6345771603126614 0 0.007430141386348627 0 0 0 0 0 0 20 30 20
0.05088134064648549 -0.08087548644219122 0.08656413248416585 0.09399565588707955 0.6456602287503047 0.7578177261442823 0 0.007430141386348627 0 0 0 0 0 0 20 30 30
0.05038656932714726 -0.0797817574873359 0.08090887042298547 0.10275691017749086 0.5033357143402103 0.8579593209788178 0 0.007430141386348627 0 0 0 0 0 0 20 30 40
0.0509072694579488 -0.084806090955435 0.08686050015550972 0.08321350349646635 0.7683666838296613 0.6345771603126613 0 0.007430141386348627 0 0 0 0 0 0 20 40 10
0.05040346185594516 -0.08471475533174491 0.08110195291078182 0.09399565588707955 0.6456602287503047 0.7578177261442823 0 0.007430141386348627 0 0 0 0 0 0 20 40 20
0.04990869053660694 -0.08362102637688959 0.07544669084960143 0.10275691017749086 0.5033357143402102 0.8579593209788177 0 0.007430141386348627 0 0 0 0 0 0 20 40 30
0.04943798887610586 -0.08155813649170877 0.07006654624799681 0.10923106008949472 0.34571759895004944 0.9319591931313123 0 0.007430141386348627 0 0 0 0 0 0 20 40 40
0.0524246365398924 -0.0819596039663187 0.10420408527454447 0.05694839508671473 0.9407212913647336 0.33436559727959947 0 0.007430141386348627 0 0 0 0 0 0 30 10 10
0.05194848962859612 -0.08385083902830662 0.0987617011715134 0.07073806325000764 0.8677267060331564 0.49198222571401334 0 0.007430141386348627 0 0 0 0 0 0 30 10 20
0.051450953682974976 -0.08476467192248953 0.09307483928730352 0.08321350349646635 0.7683666838296613 0.6345771603126613 0 0.007430141386348627 0 0 0 0 0 0 30 10 30
0.050947146080971326 -0.08467333629879945 0.0873162920425756 0.09399565588707953 0.6456602287503046 0.7578177261442822 0 0.007430141386348627 0 0 0 0 0 0 30 10 40
0.051535976059555844 -0.08858390143211228 0.09404664949908434 0.07073806325000764 0.8677267060331564 0.49198222571401334 0 0.007430141386348627 0 0 0 0 0 0 30 20 10
0.0510384401139347 -0.0894977343262952 0.08835978761487447 0.08321350349646635 0.7683666838296613 0.6345771603126614 0 0.007430141386348627 0 0 0 0 0 0 30 20 20
0.050534632511931056 -0.08940639870260511 0.08260124037014654 0.09399565588707955 0.6456602287503047 0.7578177261442823 0 0.007430141386348627 0 0 0 0 0 0 30 20 30
0.05003986119259283 -0.08831266974774979 0.07694597830896616 0.10275691017749086 0.5033357143402103 0.8579593209788178 0 0.007430141386348627 0 0 0 0 0 0 30 20 40
0.05056056132339437 -0.09333700321584887 0.08289760804149042 0.08321350349646633 0.7683666838296613 0.6345771603126613 0 0.007430141386348627 0 0 0 0 0 0 30 30 10
0.05005675372139072 -0.09324566759215878 0.0771390607967625 0.09399565588707953 0.6456602287503047 0.7578177261442823 0 0.007430141386348627 0 0 0 0 0 0 30 30 20
0.04956198240205249 -0.09215193863730346 0.07148379873558211 0.10275691017749085 0.5033357143402102 0.8579593209788177 0 0.007430141386348627 0 0 0 0 0 0 30 30 30
0.04909128074155142 -0.09008904875212265 0.06610365413397751 0.10923106008949472 0.34571759895004944 0.9319591931313124 0 0.007430141386348627 0 0 0 0 0 0 30 30 40
0.04952802981458257 -0.09607448872501523 0.07109571888476453 0.09399565588707955 0.6456602287503046 0.7578177261442822 0 0.007430141386348627 0 0 0 0 0 0 30 40 10
0.04903325849524434 -0.09498075977015992 0.06544045682358415 0.10275691017749086 0.5033357143402102 0.8579593209788176 0 0.007430141386348627 0 0 0 0 0 0 30 40 20
0.04856255683474327 -0.09291786988497908 0.06006031222197955 0.10923106008949472 0.3457175989500494 0.9319591931313124 0 0.007430141386348627 0 0 0 0 0 0 30 40 30
0.048130226864847137 -0.08994849893476133 0.05511875805118596 0.1132213918540928 0.1775950292573375 0.9775688939321545 0 0.007430141386348627 0 0 0 0 0 0 30 40 40
0.05106542465590242 -0.09629443235518541 0.08866822234110817 0.07073806325000763 0.8677267060331563 0.49198222571401334 0 0.007430141386348627 0 0 0 0 0 0 40 10 10
0.05056788871028128 -0.09720826524936832 0.08298136045689831 0.08321350349646632 0.7683666838296613 0.6345771603126614 0 0.007430141386348627 0 0 0 0 0 0 40 10 20
0.050064081108277626 -0.09711692962567822 0.0772228132121704 0.09399565588707953 0.6456602287503046 0.7578177261442823 0 0.007430141386348627 0 0 0 0 0 0 40 10 30
0.0495693097889394 -0.09602320067082291 0.07156755115099 0.10275691017749085 0.5033357143402101 0.8579593209788178 0 0.007430141386348627 0 0 0 0 0 0 40 10 40
0.05009000991974094 -0.10104753413892201 0.07751918088351427 0.08321350349646633 0.7683666838296612 0.6345771603126613 0 0.007430141386348627 0 0 0 0 0 0 40 20 10
0.0495862023177373 -0.10095619851523192 0.07176063363878635 0.09399565588707953 0.6456602287503046 0.7578177261442823 0 0.007430141386348627 0 0 0 0 0 0 40 20 20
0.04909143099839907 -0.0998624695603766 0.06610537157760597 0.10275691017749085 0.5033357143402102 0.8579593209788177 0 0.007430141386348627 0 0 0 0 0 0 40 20 30
0.048620729337897996 -0.09779957967519577 0.060725226976001356 0.10923106008949472 0.3457175989500494 0.9319591931313123 0 0.007430141386348627 0 0 0 0 0 0 40 20 40
0.049057478410929146 -0.10378501964808837 0.06571729172678836 0.09399565588707953 0.6456602287503046 0.7578177261442824 0 0.007430141386348627 0 0 0 0 0 0 40 30 10
0.04856270709159092 -0.10269129069323304 0.06006202966560798 0.10275691017749085 0.5033357143402102 0.8579593209788178 0 0.007430141386348627 0 0 0 0 0 0 40 30 20
0.048092005431089845 -0.10062840080805222 0.054681885064003385 0.10923106008949471 0.3457175989500494 0.9319591931313123 0 0.007430141386348627 0 0 0 0 0 0 40 30 30
0.047659675461193714 -0.09765902985783445 0.049740330893209804 0.1132213918540928 0.1775950292573375 0.9775688939321547 0 0.007430141386348627 0 0 0 0 0 0 40 30 40
0.04799920307687611 -0.10442371177072296 0.05362114930091356 0.10275691017749086 0.5033357143402101 0.8579593209788178 0 0.007430141386348627 0 0 0 0 0 0 40 40 10
0.04752850141637503 -0.10236082188554213 0.04824100469930896 0.10923106008949472 0.3457175989500494 0.9319591931313124 0 0.007430141386348627 0 0 0 0 0 0 40 40 20
0.0470961714464789 -0.09939145093532437 0.04329945052851539 0.11322139185409279 0.17759502925733744 0.9775688939321546 0 0.007430141386348627 0 0 0 0 0 0 40 40 30
0.046715349294553496 -0.09560582175381784 0.038946633411465335 0.11460666125982309 0.004076324468062398 0.9934025957021335 0 0.007430141386348627 0 0 0 0 0 0 40 40 40
0.049509912713278044 -0.1077034031442737 0.07088863946916085 0.08321350349646633 0.768366683829661 0.6345771603126614 0 0.007430141386348627 0 0 0 0 0 0 50 10 10
0.0490061051112744 -0.10761206752058361 0.06513009222443294 0.09399565588707953 0.6456602287503045 0.7578177261442824 0 0.007430141386348627 0 0 0 0 0 0 50 10 20
0.04851133379193617 -0.10651833856572829 0.05947483016325255 0.10275691017749086 0.50333571434021 0.8579593209788177 0 0.007430141386348627 0 0 0 0 0 0 50 10 30
0.0480406321314351 -0.10445544868054744 0.05409468556164797 0.10923106008949471 0.34571759895004917 0.9319591931313123 0 0.007430141386348627 0 0 0 0 0 0 50 10 40
0.04847738120446625 -0.11044088865344004 0.059086750312434974 0.09399565588707953 0.6456602287503044 0.7578177261442822 0 0.007430141386348627 0 0 0 0 0 0 50 20 10
0.04798260988512802 -0.10934715969858473 0.05343148825125459 0.10275691017749085 0.5033357143402101 0.8579593209788177 0 0.007430141386348627 0 0 0 0 0 0 50 20 20
0.04751190822462695 -0.1072842698134039 0.04805134364965 0.10923106008949471 0.3457175989500492 0.9319591931313123 0 0.007430141386348627 0 0 0 0 0 0 50 20 30
0.04707957825473082 -0.10431489886318615 0.043109789478856436 0.11322139185409279 0.1775950292573374 0.9775688939321544 0 0.007430141386348627 0 0 0 0 0 0 50 20 40
0.04741910587041321 -0.11107958077607462 0.04699060788656019 0.10275691017749085 0.50333571434021 0.8579593209788177 0 0.007430141386348627 0 0 0 0 0 0 50 30 10
0.046948404209912135 -0.10901669089089379 0.04161046328495559 0.10923106008949471 0.34571759895004933 0.9319591931313121 0 0.007430141386348627 0 0 0 0 0 0 50 30 20
0.046516074240016005 -0.10604731994067602 0.03666890911416201 0.11322139185409279 0.17759502925733744 0.9775688939321544 0 0.007430141386348627 0 0 0 0 0 0 50 30 30
0.0461352520880906 -0.1022616907591695 0.03231609199711197 0.1146066612598231 0.004076324468062286 0.9934025957021331 0 0.007430141386348627 0 0 0 0 0 0 50 30 40
0.046367241871630986 -0.10960007317522501 0.03496774735820326 0.1092310600894947 0.3457175989500492 0.9319591931313121 0 0.007430141386348627 0 0 0 0 0 0 50 40 10
0.045934911901734855 -0.10663070222500726 0.030026193187409688 0.11322139185409279 0.17759502925733744 0.9775688939321545 0 0.007430141386348627 0 0 0 0 0 0 50 40 20
0.04555408974980945 -0.10284507304350071 0.025673376070359633 0.11460666125982308 0.004076324468062342 0.9934025957021331 0 0.007430141386348627 0 0 0 0 0 0 50 40 30
0.0452363465042357 -0.09835821005776468 0.022041554152522926 0.11334477759677264 -0.16956623737745527 0.9789791994252071 0 0.007430141386348627 0 0 0 0 0 0 50 40 40
0.0624156650684453 -0.04568296382822874 0.12603735755043238 -0.14620811811869663 0.9892156097282221 0.008699657478234226 0 0.007430141386348627 0 0 0 0 0 10 10 10 10
0.06265526845018188 -0.04927327241858856 0.12151239289739874 -0.12856957519778822 0.9749570792367114 0.18146233315404267 0 0.007430141386348627 0 0 0 0 0 10 10 10 20
0.0627012755489469 -0.05204173739334919 0.11643730514484295 -0.10620208568693838 0.9312205409171905 0.34863941478792526 0 0.007430141386348627 0 0 0 0 0 10 10 10 30
0.06255228846232509 -0.053904240345163425 0.11096629826600812 -0.07978527443643843 0.8593349073547422 0.5051513113501211 0 0.007430141386348627 0 0 0 0 0 10 10 10 40
0.06345813575342424 -0.05524753626521789 0.11860252434007883 -0.12856957519778825 0.9749570792367115 0.18146233315404267 0 0.007430141386348627 0 0 0 0 0 10 10 20 10
0.06350414285218926 -0.05801600123997852 0.11352743658752304 -0.10620208568693841 0.9312205409171906 0.3486394147879251 0 0.007430141386348627 0 0 0 0 0 10 10 20 20
0.06335515576556747 -0.05987850419179276 0.10805642970868821 -0.07978527443643844 0.8593349073547423 0.5051513113501209 0 0.007430141386348627 0 0 0 0 0 10 10 20 30
0.06301570139079474 -0.06077845391094167 0.10235573747912464 -0.05012180288858335 0.7614843871492751 0.6462424880624292 0 0.007430141386348627 0 0 0 0 0 10 10 20 40
0.06411802604971006 -0.0634157456900285 0.10961979449406144 -0.1062020856869384 0.9312205409171906 0.3486394147879252 0 0.007430141386348627 0 0 0 0 0 10 10 30 10
0.06396903896308825 -0.06527824864184274 0.10414878761522661 -0.07978527443643846 0.8593349073547422 0.505151311350121 0 0.007430141386348627 0 0 0 0 0 10 10 30 20
0.06362958458831552 -0.06617819836099166 0.09844809538566304 -0.05012180288858335 0.761484387149275 0.6462424880624292 0 0.007430141386348627 0 0 0 0 0 10 10 30 30
0.06310997707479712 -0.06608825033065546 0.09269093045407659 -0.018112980615913807 0.6406421188424805 0.7676259609160264 0 0.007430141386348627 0 0 0 0 0 10 10 30 40
0.0643752855245707 -0.06993940519260114 0.0993621037132708 -0.07978527443643843 0.8593349073547422 0.5051513113501211 0 0.007430141386348627 0 0 0 0 0 10 10 40 10
0.06403583114979797 -0.07083935491175006 0.09366141148370724 -0.05012180288858335 0.7614843871492751 0.6462424880624292 0 0.007430141386348627 0 0 0 0 0 10 10 40 20
0.06351622363627957 -0.07074940688141386 0.0879042465521208 -0.018112980615913835 0.6406421188424805 0.7676259609160266 0 0.007430141386348627 0 0 0 0 0 10 10 40 30
0.06283225099537969 -0.0696722941269784 0.08226553746169171 0.0152686205140607 0.5004798336077217 0.8656135545112573 0 0.007430141386348627 0 0 0 0 0 10 10 40 40
0.06481862172686617 -0.06420149319243194 0.11603797414667928 -0.12856957519778828 0.9749570792367115 0.18146233315404262 0 0.007430141386348627 0 0 0 0 0 10 20 10 10
0.06486462882563118 -0.06696995816719259 0.11096288639412351 -0.10620208568693844 0.9312205409171906 0.3486394147879251 0 0.007430141386348627 0 0 0 0 0 10 20 10 20
0.06471564173900939 -0.06883246111900682 0.10549187951528867 -0.0797852744364385 0.8593349073547423 0.505151311350121 0 0.007430141386348627 0 0 0 0 0 10 20 10 30
0.06437618736423666 -0.06973241083815573 0.09979118728572511 -0.050121802888583415 0.7614843871492751 0.6462424880624292 0 0.007430141386348627 0 0 0 0 0 10 20 10 40
0.06547851202315198 -0.07236970261724257 0.1070552443006619 -0.10620208568693842 0.9312205409171908 0.34863941478792515 0 0.007430141386348627 0 0 0 0 0 10 20 20 10
0.06532952493653017 -0.0742322055690568 0.10158423742182708 -0.07978527443643851 0.8593349073547423 0.505151311350121 0 0.007430141386348627 0 0 0 0 0 10 20 20 20
0.06499007056175744 -0.07513215528820572 0.09588354519226351 -0.05012180288858343 0.7614843871492752 0.6462424880624292 0 0.007430141386348627 0 0 0 0 0 10 20 20 30
0.06447046304823906 -0.07504220725786952 0.09012638026067708 -0.018112980615913904 0.6406421188424805 0.7676259609160266 0 0.007430141386348627 0 0 0 0 0 10 20 20 40
0.06573577149801262 -0.0788933621198152 0.09679755351987128 -0.07978527443643849 0.8593349073547423 0.5051513113501211 0 0.007430141386348627 0 0 0 0 0 10 20 30 10
0.06539631712323989 -0.07979331183896411 0.09109686129030772 -0.05012180288858341 0.7614843871492752 0.6462424880624292 0 0.007430141386348627 0 0 0 0 0 10 20 30 20
0.06487670960972149 -0.07970336380862793 0.08533969635872127 -0.01811298061591389 0.6406421188424806 0.7676259609160266 0 0.007430141386348627 0 0 0 0 0 10 20 30 30
0.0641927369688216 -0.07862625105419248 0.07970098726829217 0.015268620514060603 0.5004798336077219 0.8656135545112573 0 0.007430141386348627 0 0 0 0 0 10 20 30 40
0.06558258345248401 -0.08357425360729516 0.08557657654803974 -0.050121802888583394 0.7614843871492752 0.6462424880624292 0 0.007430141386348627 0 0 0 0 0 10 20 40 10
0.06506297593896561 -0.08348430557695898 0.0798194116164533 -0.01811298061591389 0.6406421188424806 0.7676259609160265 0 0.007430141386348627 0 0 0 0 0 10 20 40 20
0.06437900329806573 -0.08240719282252353 0.07418070252602418 0.015268620514060603 0.5004798336077219 0.8656135545112573 0 0.007430141386348627 0 0 0 0 0 10 20 40 30
0.06355144769237124 -0.08037564286998697 0.06883177859914062 0.049008717442911034 0.3452562915563186 0.9372279654008453 0 0.007430141386348627 0 0 0 0 0 10 20 40 40
0.06660754416833654 -0.08077101115156507 0.10296324164193077 -0.10620208568693836 0.9312205409171908 0.3486394147879251 0 0.007430141386348627 0 0 0 0 0 10 30 10 10
0.06645855708171475 -0.0826335141033793 0.09749223476309594 -0.07978527443643846 0.8593349073547423 0.505151311350121 0 0.007430141386348627 0 0 0 0 0 10 30 10 20
0.06611910270694202 -0.08353346382252823 0.09179154253353237 -0.05012180288858338 0.7614843871492752 0.6462424880624291 0 0.007430141386348627 0 0 0 0 0 10 30 10 30
0.06559949519342362 -0.08344351579219203 0.08603437760194593 -0.01811298061591389 0.6406421188424805 0.7676259609160263 0 0.007430141386348627 0 0 0 0 0 10 30 10 40
0.06686480364319718 -0.08729467065413771 0.09270555086114014 -0.07978527443643844 0.8593349073547423 0.5051513113501209 0 0.007430141386348627 0 0 0 0 0 10 30 20 10
0.06652534926842445 -0.08819462037328663 0.08700485863157659 -0.05012180288858339 0.7614843871492752 0.646242488062429 0 0.007430141386348627 0 0 0 0 0 10 30 20 20
0.06600574175490605 -0.08810467234295044 0.08124769369999013 -0.01811298061591389 0.6406421188424806 0.7676259609160264 0 0.007430141386348627 0 0 0 0 0 10 30 20 30
0.06532176911400618 -0.08702755958851498 0.07560898460956104 0.015268620514060603 0.5004798336077219 0.8656135545112571 0 0.007430141386348627 0 0 0 0 0 10 30 20 40
0.06671161559766857 -0.09197556214161766 0.08148457388930862 -0.05012180288858336 0.7614843871492752 0.6462424880624291 0 0.007430141386348627 0 0 0 0 0 10 30 30 10
0.06619200808415017 -0.09188561411128147 0.07572740895772216 -0.01811298061591389 0.6406421188424806 0.7676259609160264 0 0.007430141386348627 0 0 0 0 0 10 30 30 20
0.0655080354432503 -0.09080850135684601 0.07008869986729306 0.01526862051406059 0.5004798336077219 0.865613554511257 0 0.007430141386348627 0 0 0 0 0 10 30 30 30
0.06468047983755582 -0.08877695140430947 0.06473977594040953 0.04900871744291101 0.34525629155631876 0.937227965400845 0 0.007430141386348627 0 0 0 0 0 10 30 30 40
0.06615263457299721 -0.09467145909480328 0.06964125443363697 -0.018112980615913876 0.6406421188424805 0.7676259609160264 0 0.007430141386348627 0 0 0 0 0 10 30 40 10
0.06546866193209734 -0.09359434634036781 0.06400254534320786 0.015268620514060603 0.5004798336077219 0.8656135545112571 0 0.007430141386348627 0 0 0 0 0 10 30 40 20
0.06464110632640284 -0.09156279638783127 0.05865362141632432 0.04900871744291099 0.3452562915563187 0.9372279654008451 0 0.007430141386348627 0 0 0 0 0 10 30 40 30
0.06369511261422946 -0.0886385368544876 0.05375700699981856 0.08208213439876706 0.17968788146660078 0.9802932259485507 0 0.007430141386348627 0 0 0 0 0 10 30 40 40
0.06772807688971078 -0.09488806128702049 0.08721042916720975 -0.07978527443643837 0.8593349073547422 0.5051513113501211 0 0.007430141386348627 0 0 0 0 0 10 40 10 10
0.06738862251493805 -0.09578801100616942 0.0815097369376462 -0.050121802888583346 0.7614843871492751 0.6462424880624292 0 0.007430141386348627 0 0 0 0 0 10 40 10 20
0.06686901500141966 -0.0956980629758332 0.07575257200605975 -0.01811298061591385 0.6406421188424805 0.7676259609160266 0 0.007430141386348627 0 0 0 0 0 10 40 10 30
0.06618504236051977 -0.09462095022139777 0.07011386291563067 0.015268620514060617 0.5004798336077217 0.8656135545112573 0 0.007430141386348627 0 0 0 0 0 10 40 10 40
0.06757488884418217 -0.09956895277450044 0.07598945219537824 -0.05012180288858332 0.7614843871492752 0.6462424880624293 0 0.007430141386348627 0 0 0 0 0 10 40 20 10
0.06705528133066378 -0.09947900474416428 0.07023228726379177 -0.018112980615913862 0.6406421188424806 0.7676259609160266 0 0.007430141386348627 0 0 0 0 0 10 40 20 20
0.0663713086897639 -0.09840189198972882 0.06459357817336268 0.015268620514060603 0.5004798336077219 0.8656135545112573 0 0.007430141386348627 0 0 0 0 0 10 40 20 30
0.06554375308406941 -0.09637034203719226 0.05924465424647914 0.04900871744291101 0.3452562915563186 0.9372279654008452 0 0.007430141386348627 0 0 0 0 0 10 40 20 40
0.06701590781951082 -0.10226484972768604 0.06414613273970658 -0.01811298061591385 0.6406421188424805 0.7676259609160266 0 0.007430141386348627 0 0 0 0 0 10 40 30 10
0.06633193517861094 -0.10118773697325059 0.05850742364927746 0.015268620514060617 0.5004798336077217 0.8656135545112573 0 0.007430141386348627 0 0 0 0 0 10 40 30 20
0.06550437957291647 -0.09915618702071405 0.05315849972239392 0.04900871744291101 0.3452562915563186 0.9372279654008454 0 0.007430141386348627 0 0 0 0 0 10 40 30 30
0.06455838586074307 -0.09623192748737036 0.04826188530588817 0.08208213439876706 0.17968788146660078 0.9802932259485508 0 0.007430141386348627 0 0 0 0 0 10 40 30 40
0.06606811817127331 -0.10289383868184443 0.05204032406884655 0.015268620514060631 0.5004798336077217 0.8656135545112572 0 0.007430141386348627 0 0 0 0 0 10 40 40 10
0.06524056256557884 -0.10086228872930789 0.04669140014196302 0.04900871744291102 0.34525629155631865 0.9372279654008453 0 0.007430141386348627 0 0 0 0 0 10 40 40 20
0.06429456885340544 -0.0979380291959642 0.04179478572545726 0.08208213439876703 0.17968788146660072 0.9802932259485508 0 0.007430141386348627 0 0 0 0 0 10 40 40 30
0.06325888057500159 -0.0942099122279873 0.03749926197056841 0.11348395234338154 0.008805315697486058 0.9935008200047051 0 0.007430141386348627 0 0 0 0 0 10 40 40 40
0.06814617307126684 -0.10612370417400444 0.06925817795825287 -0.05012180288858323 0.761484387149275 0.6462424880624292 0 0.007430141386348627 0 0 0 0 0 10 50 10 10
0.06762656555774847 -0.10603375614366825 0.06350101302666643 -0.018112980615913765 0.6406421188424803 0.7676259609160264 0 0.007430141386348627 0 0 0 0 0 10 50 10 20
0.06694259291684858 -0.1049566433892328 0.05786230393623733 0.015268620514060686 0.5004798336077217 0.8656135545112571 0 0.007430141386348627 0 0 0 0 0 10 50 10 30
0.0661150373111541 -0.10292509343669623 0.05251338000935379 0.04900871744291106 0.34525629155631843 0.9372279654008451 0 0.007430141386348627 0 0 0 0 0 10 50 10 40
0.0675871920465955 -0.10881960112719004 0.057414858502581226 -0.01811298061591378 0.6406421188424802 0.7676259609160265 0 0.007430141386348627 0 0 0 0 0 10 50 20 10
0.06690321940569562 -0.10774248837275457 0.05177614941215211 0.015268620514060673 0.5004798336077216 0.8656135545112572 0 0.007430141386348627 0 0 0 0 0 10 50 20 20
0.06607566380000114 -0.10571093842021803 0.04642722548526858 0.04900871744291106 0.3452562915563185 0.9372279654008451 0 0.007430141386348627 0 0 0 0 0 10 50 20 30
0.06512967008782775 -0.10278667888687437 0.04153061106876284 0.08208213439876712 0.17968788146660056 0.9802932259485506 0 0.007430141386348627 0 0 0 0 0 10 50 20 40
0.06663940239835799 -0.1094485900813484 0.04530904983172121 0.015268620514060714 0.5004798336077215 0.8656135545112572 0 0.007430141386348627 0 0 0 0 0 10 50 30 10
0.06581184679266351 -0.10741704012881187 0.039960125904837655 0.049008717442911076 0.34525629155631854 0.937227965400845 0 0.007430141386348627 0 0 0 0 0 10 50 30 20
0.06486585308049012 -0.10449278059546818 0.03506351148833191 0.08208213439876709 0.17968788146660067 0.9802932259485506 0 0.007430141386348627 0 0 0 0 0 10 50 30 30
0.06383016480208627 -0.10076466362749127 0.030767987733443056 0.11348395234338157 0.008805315697486 0.9935008200047049 0 0.007430141386348627 0 0 0 0 0 10 50 30 40
0.0653316022354113 -0.10799155952539122 0.03330858081630216 0.049008717442911076 0.34525629155631843 0.9372279654008452 0 0.007430141386348627 0 0 0 0 0 10 50 40 10
0.06438560852323792 -0.10506729999204754 0.028411966399796422 0.08208213439876709 0.1796878814666006 0.9802932259485507 0 0.007430141386348627 0 0 0 0 0 10 50 40 20
0.06334992024483407 -0.10133918302407063 0.024116442644907556 0.1134839523433816 0.008805315697485947 0.993500820004705 0 0.007430141386348627 0 0 0 0 0 10 50 40 30
0.06225600626445553 -0.0969204855690143 0.02055252686728797 0.142260042928594 -0.16219922546088153 0.9764494415072771 0 0.007430141386348627 0 0 0 0 0 10 50 40 40
0.07020133731578561 -0.04364760696213526 0.12535619949125174 -0.3151141160611278 0.9487633761285039 0.02347701749126833 0 0.007430141386348627 0 0 0 0 0 20 10 10 10
0.07105243769275084 -0.047073439545587265 0.12077773578338605 -0.2950470775575985 0.9351580446867668 0.19602722733429645 0 0.007430141386348627 0 0 0 0 0 20 10 10 20
0.07156996638105484 -0.04971507807831575 0.11566139523716151 -0.26523043400024104 0.8934251255542096 0.3625525924366243 0 0.007430141386348627 0 0 0 0 0 20 10 10 30
0.07173819853338563 -0.05149225771023738 0.11016263527108189 -0.22657014901559613 0.8248326523607992 0.5179933238455187 0 0.007430141386348627 0 0 0 0 0 20 10 10 40
0.07287283435286414 -0.05277401575869515 0.1177788449425861 -0.29504707755759846 0.9351580446867668 0.1960272273342964 0 0.007430141386348627 0 0 0 0 0 20 10 20 10
0.07339036304116814 -0.055415654291423644 0.11266250439636155 -0.265230434000241 0.8934251255542096 0.36255259243662424 0 0.007430141386348627 0 0 0 0 0 20 10 20 20
0.07355859519349893 -0.057192833923345274 0.10716374443028193 -0.2265701490155961 0.8248326523607991 0.5179933238455184 0 0.007430141386348627 0 0 0 0 0 20 10 20 30
0.07337241916103751 -0.058051555950640384 0.10144964208340977 -0.18024089579987404 0.7314647726950508 0.6576264335939249 0 0.007430141386348627 0 0 0 0 0 20 10 20 40
0.07492392415024061 -0.06056803047684826 0.10867440091159003 -0.26523043400024104 0.8934251255542095 0.3625525924366243 0 0.007430141386348627 0 0 0 0 0 20 10 30 10
0.0750921563025714 -0.062345210108769894 0.1031756409455104 -0.22657014901559616 0.8248326523607992 0.5179933238455185 0 0.007430141386348627 0 0 0 0 0 20 10 30 20
0.07490598027010999 -0.06320393213606501 0.09746153859863824 -0.1802408957998741 0.731464772695051 0.6576264335939251 0 0.007430141386348627 0 0 0 0 0 20 10 30 30
0.0743710529173931 -0.06311810472446856 0.09170571397930795 -0.12765036526830129 0.6161584223341818 0.7772092402999015 0 0.007430141386348627 0 0 0 0 0 20 10 30 40
0.07629228538232324 -0.06679283392334527 0.09831950132307442 -0.22657014901559616 0.824832652360799 0.5179933238455184 0 0.007430141386348627 0 0 0 0 0 20 10 40 10
0.07610610934986183 -0.06765155595064037 0.09260539897620224 -0.1802408957998741 0.7314647726950507 0.6576264335939251 0 0.007430141386348627 0 0 0 0 0 20 10 40 20
0.07557118199714494 -0.06756572853904394 0.08684957435687195 -0.12765036526830129 0.6161584223341816 0.7772092402999015 0 0.007430141386348627 0 0 0 0 0 20 10 40 30
0.07470375682109856 -0.06653795951102652 0.08122691528355407 -0.07039649407898706 0.4824171263860783 0.8731082808935063 0 0.007430141386348627 0 0 0 0 0 20 10 40 40
0.07575834738696033 -0.06131778201723883 0.11508087216988544 -0.29504707755759835 0.9351580446867668 0.1960272273342964 0 0.007430141386348627 0 0 0 0 0 20 20 10 10
0.07627587607526433 -0.06395942054996732 0.10996453162366089 -0.26523043400024093 0.8934251255542096 0.36255259243662424 0 0.007430141386348627 0 0 0 0 0 20 20 10 20
0.0764441082275951 -0.06573660018188895 0.10446577165758128 -0.22657014901559602 0.8248326523607991 0.5179933238455184 0 0.007430141386348627 0 0 0 0 0 20 20 10 30
0.07625793219513369 -0.06659532220918407 0.09875166931070911 -0.18024089579987404 0.7314647726950508 0.6576264335939251 0 0.007430141386348627 0 0 0 0 0 20 20 10 40
0.0778094371843368 -0.06911179673539194 0.10597642813888938 -0.26523043400024093 0.8934251255542094 0.3625525924366242 0 0.007430141386348627 0 0 0 0 0 20 20 20 10
0.0779776693366676 -0.07088897636731357 0.10047766817280977 -0.22657014901559605 0.8248326523607991 0.5179933238455185 0 0.007430141386348627 0 0 0 0 0 20 20 20 20
0.07779149330420616 -0.07174769839460868 0.0947635658259376 -0.18024089579987404 0.7314647726950507 0.657626433593925 0 0.007430141386348627 0 0 0 0 0 20 20 20 30
0.07725656595148928 -0.07166187098301223 0.0890077412066073 -0.12765036526830126 0.6161584223341817 0.7772092402999015 0 0.007430141386348627 0 0 0 0 0 20 20 20 40
0.07917779841641943 -0.07533660018188895 0.09562152855037377 -0.226570149015596 0.8248326523607991 0.5179933238455185 0 0.007430141386348627 0 0 0 0 0 20 20 30 10
0.078991622383958 -0.07619532220918405 0.0899074262035016 -0.180240895799874 0.731464772695051 0.657626433593925 0 0.007430141386348627 0 0 0 0 0 20 20 30 20
0.07845669503124111 -0.0761094947975876 0.0841516015841713 -0.12765036526830123 0.6161584223341817 0.7772092402999015 0 0.007430141386348627 0 0 0 0 0 20 20 30 30
0.07758926985519475 -0.07508172576957019 0.07852894251085342 -0.07039649407898706 0.48241712638607837 0.8731082808935064 0 0.007430141386348627 0 0 0 0 0 20 20 30 40
0.07982185411959558 -0.07980305485391058 0.0843308017885036 -0.180240895799874 0.7314647726950507 0.657626433593925 0 0.007430141386348627 0 0 0 0 0 20 20 40 10
0.0792869267668787 -0.07971722744231412 0.07857497716917329 -0.12765036526830126 0.6161584223341817 0.7772092402999015 0 0.007430141386348627 0 0 0 0 0 20 20 40 20
0.07841950159083233 -0.0786894584142967 0.07295231809585541 -0.07039649407898708 0.48241712638607837 0.8731082808935067 0 0.007430141386348627 0 0 0 0 0 20 20 40 30
0.07724593486649234 -0.07675097601169838 0.06763366621928993 -0.010218912136162099 0.33430454645176244 0.9424097115535598 0 0.007430141386348627 0 0 0 0 0 20 20 40 40
0.08036936998762112 -0.07712823203507489 0.10175923789401445 -0.2652304340002409 0.8934251255542096 0.36255259243662424 0 0.007430141386348627 0 0 0 0 0 20 30 10 10
0.08053760213995191 -0.07890541166699655 0.09626047792793482 -0.226570149015596 0.8248326523607992 0.5179933238455185 0 0.007430141386348627 0 0 0 0 0 20 30 10 20
0.08035142610749048 -0.07976413369429165 0.09054637558106265 -0.18024089579987398 0.7314647726950508 0.6576264335939251 0 0.007430141386348627 0 0 0 0 0 20 30 10 30
0.07981649875477359 -0.0796783062826952 0.08479055096173237 -0.12765036526830126 0.6161584223341817 0.7772092402999015 0 0.007430141386348627 0 0 0 0 0 20 30 10 40
0.08173773121970375 -0.08335303548157191 0.09140433830549881 -0.22657014901559605 0.8248326523607991 0.5179933238455184 0 0.007430141386348627 0 0 0 0 0 20 30 20 10
0.08155155518724232 -0.08421175750886703 0.08569023595862663 -0.180240895799874 0.731464772695051 0.6576264335939251 0 0.007430141386348627 0 0 0 0 0 20 30 20 20
0.08101662783452543 -0.08412593009727058 0.07993441133929634 -0.12765036526830129 0.6161584223341817 0.7772092402999015 0 0.007430141386348627 0 0 0 0 0 20 30 20 30
0.08014920265847907 -0.08309816106925316 0.07431175226597846 -0.07039649407898714 0.48241712638607837 0.8731082808935063 0 0.007430141386348627 0 0 0 0 0 20 30 20 40
0.08238178692287991 -0.08781949015359355 0.08011361154362864 -0.180240895799874 0.7314647726950507 0.6576264335939249 0 0.007430141386348627 0 0 0 0 0 20 30 30 10
0.08184685957016301 -0.08773366274199708 0.07435778692429834 -0.12765036526830126 0.6161584223341817 0.7772092402999012 0 0.007430141386348627 0 0 0 0 0 20 30 30 20
0.08097943439411665 -0.08670589371397967 0.06873512785098046 -0.07039649407898713 0.48241712638607837 0.8731082808935064 0 0.007430141386348627 0 0 0 0 0 20 30 30 30
0.07980586766977664 -0.08476741131138135 0.063416475974415 -0.010218912136162153 0.33430454645176244 0.9424097115535596 0 0.007430141386348627 0 0 0 0 0 20 30 30 40
0.0822819677905165 -0.09039188508606551 0.06823012062767993 -0.1276503652683013 0.6161584223341818 0.7772092402999013 0 0.007430141386348627 0 0 0 0 0 20 30 40 10
0.08141454261447012 -0.0893641160580481 0.06260746155436205 -0.07039649407898714 0.48241712638607837 0.8731082808935063 0 0.007430141386348627 0 0 0 0 0 20 30 40 20
0.08024097589013013 -0.08742563365544978 0.05728880967779656 -0.010218912136162153 0.3343045464517624 0.9424097115535595 0 0.007430141386348627 0 0 0 0 0 20 30 40 30
0.07879692584856214 -0.0846353376851541 0.052435769543885236 0.051053915184166694 0.17632100832395645 0.9830078433776709 0 0.007430141386348627 0 0 0 0 0 20 30 40 40
0.0838943015293369 -0.09059856449232528 0.08579606778003888 -0.2265701490155959 0.824832652360799 0.5179933238455187 0 0.007430141386348627 0 0 0 0 0 20 40 10 10
0.08370812549687548 -0.09145728651962041 0.0800819654331667 -0.18024089579987398 0.7314647726950508 0.6576264335939251 0 0.007430141386348627 0 0 0 0 0 20 40 10 20
0.08317319814415858 -0.09137145910802395 0.07432614081383641 -0.1276503652683012 0.6161584223341816 0.7772092402999015 0 0.007430141386348627 0 0 0 0 0 20 40 10 30
0.08230577296811223 -0.09034369008000653 0.06870348174051852 -0.0703964940789871 0.4824171263860783 0.8731082808935067 0 0.007430141386348627 0 0 0 0 0 20 40 10 40
0.08453835723251306 -0.09506501916434694 0.07450534101816869 -0.18024089579987396 0.7314647726950508 0.6576264335939251 0 0.007430141386348627 0 0 0 0 0 20 40 20 10
0.08400342987979617 -0.09497919175275046 0.06874951639883842 -0.12765036526830126 0.6161584223341818 0.7772092402999016 0 0.007430141386348627 0 0 0 0 0 20 40 20 20
0.0831360047037498 -0.09395142272473306 0.06312685732552054 -0.07039649407898711 0.48241712638607837 0.8731082808935066 0 0.007430141386348627 0 0 0 0 0 20 40 20 30
0.0819624379794098 -0.09201294032213474 0.05780820544895506 -0.01021891213616218 0.33430454645176255 0.9424097115535597 0 0.007430141386348627 0 0 0 0 0 20 40 20 40
0.08443853810014965 -0.09763741409681888 0.06262185010222 -0.12765036526830123 0.6161584223341818 0.7772092402999016 0 0.007430141386348627 0 0 0 0 0 20 40 30 10
0.08357111292410327 -0.09660964506880147 0.05699919102890212 -0.07039649407898708 0.4824171263860784 0.8731082808935066 0 0.007430141386348627 0 0 0 0 0 20 40 30 20
0.08239754619976328 -0.09467116266620315 0.05168053915233664 -0.010218912136162153 0.33430454645176244 0.9424097115535597 0 0.007430141386348627 0 0 0 0 0 20 40 30 30
0.0809534961581953 -0.09188086669590748 0.04682749901842532 0.05105391518416667 0.17632100832395645 0.9830078433776711 0 0.007430141386348627 0 0 0 0 0 20 40 30 40
0.08359787708607261 -0.09823758837141272 0.05050666889033729 -0.0703964940789871 0.4824171263860783 0.8731082808935066 0 0.007430141386348627 0 0 0 0 0 20 40 40 10
0.08242431036173262 -0.09629910596881439 0.045188017013771814 -0.010218912136162153 0.33430454645176244 0.9424097115535598 0 0.007430141386348627 0 0 0 0 0 20 40 40 20
0.08098026032016464 -0.09350880999851874 0.04033497687986047 0.0510539151841667 0.17632100832395645 0.9830078433776712 0 0.007430141386348627 0 0 0 0 0 20 40 40 30
0.07930960369115717 -0.08995148219162523 0.03609500565731538 0.1115602440294179 0.013266761865146196 0.9936691226740113 0 0.007430141386348627 0 0 0 0 0 20 40 40 40
0.08622603875091407 -0.10131949015359355 0.06767639467411804 -0.18024089579987373 0.7314647726950505 0.657626433593925 0 0.007430141386348627 0 0 0 0 0 20 50 10 10
0.0856911113981972 -0.10123366274199708 0.06192057005478775 -0.12765036526830104 0.6161584223341815 0.7772092402999015 0 0.007430141386348627 0 0 0 0 0 20 50 10 20
0.08482368622215082 -0.10020589371397966 0.05629791098146987 -0.07039649407898695 0.4824171263860781 0.8731082808935066 0 0.007430141386348627 0 0 0 0 0 20 50 10 30
0.08365011949781083 -0.09826741131138135 0.0509792591049044 -0.010218912136162042 0.3343045464517621 0.9424097115535597 0 0.007430141386348627 0 0 0 0 0 20 50 10 40
0.08612621961855067 -0.1038918850860655 0.05579290375816933 -0.1276503652683011 0.6161584223341816 0.7772092402999016 0 0.007430141386348627 0 0 0 0 0 20 50 20 10
0.0852587944425043 -0.1028641160580481 0.05017024468485147 -0.070396494078987 0.4824171263860782 0.8731082808935066 0 0.007430141386348627 0 0 0 0 0 20 50 20 20
0.0840852277181643 -0.10092563365544976 0.04485159280828599 -0.010218912136162042 0.33430454645176233 0.9424097115535598 0 0.007430141386348627 0 0 0 0 0 20 50 20 30
0.08264117767659634 -0.0981353376851541 0.03999855267437465 0.05105391518416676 0.17632100832395628 0.9830078433776712 0 0.007430141386348627 0 0 0 0 0 20 50 20 40
