# .PCD v0.7 - Point Cloud Data file format
VERSION 0.7
FIELDS x y z normal_x normal_y normal_z curvature xx xy xz zx zy zz a0 a1 a2 a3
SIZE 4 4 4 4 4 4 4 4 4 4 4 4 4 4 4 4 4
TYPE F F F F F F F F F F F F F F F F F
COUNT 1 1 1 1 1 1 1 1 1 1 1 1 1 1 1 1 1
WIDTH 287
HEIGHT 1
VIEWPOINT 0 0 0 1 0 0 0
POINTS 287
DATA ascii
-0.02444668677380877 -0.0836128085230829 0.07842256135745668 -0.44609798215728125 0.3210382410422642 0.8354226664076821 0 0.007698791113081519 0 0 0 0 0 -20 30 30 20
-0.02403233369960099 -0.08247438280801543 0.07386081857275807 -0.49648946173372877 0.18258878877306575 0.8486221432685854 0 0.007698791113081519 0 0 0 0 0 -20 30 30 30
-0.023353348317367073 -0.08060888580218796 0.06957875148027301 -0.5468993139414285 0.04408885811436603 0.8360366657297973 0 0.007698791113081519 0 0 0 0 0 -20 30 30 40
-0.02541420058311101 -0.08627103086715131 0.07235613486116235 -0.4460979821572813 0.3210382410422642 0.835422666407682 0 0.007698791113081519 0 0 0 0 0 -20 30 40 10
-0.02499984750890323 -0.08513260515208386 0.06779439207646375 -0.4964894617337288 0.18258878877306584 0.8486221432685852 0 0.007698791113081519 0 0 0 0 0 -20 30 40 20
-0.024320862126669313 -0.08326710814625639 0.06351232498397869 -0.5468993139414285 0.04408885811436603 0.8360366657297972 0 0.007698791113081519 0 0 0 0 0 -20 30 40 30
-0.025763609216520832 -0.08723102319760731 0.08791043503114962 -0.3514475387909912 0.5810881969325151 0.7340443639913758 0 0.007698791113081519 0 0 0 0 0 -20 40 10 10
-0.0259078672270589 -0.08762736882413609 0.0832094459242372 -0.3972559948196973 0.455230498373565 0.7968392945722486 0 0.007698791113081519 0 0 0 0 0 -20 40 10 20
-0.025770736369364305 -0.08725060488910975 0.0785066336934849 -0.4460979821572813 0.32103824104226414 0.8354226664076819 0 0.007698791113081519 0 0 0 0 0 -20 40 10 30
-0.02535638329515653 -0.08611217917404229 0.07394489090878631 -0.4964894617337288 0.1825887887730658 0.8486221432685852 0 0.007698791113081519 0 0 0 0 0 -20 40 10 40
-0.02722097452292983 -0.09123510146886263 0.0777264017122741 -0.3972559948196973 0.455230498373565 0.7968392945722486 0 0.007698791113081519 0 0 0 0 0 -20 40 20 10
-0.027083843665235238 -0.09085833753383628 0.07302358948152181 -0.44609798215728125 0.32103824104226425 0.835422666407682 0 0.007698791113081519 0 0 0 0 0 -20 40 20 20
-0.026669490591027467 -0.08971991181876882 0.0684618466968232 -0.49648946173372877 0.18258878877306575 0.8486221432685852 0 0.007698791113081519 0 0 0 0 0 -20 40 20 30
-0.025990505208793542 -0.08785441481294134 0.06417977960433814 -0.5468993139414285 0.04408885811436609 0.8360366657297971 0 0.007698791113081519 0 0 0 0 0 -20 40 20 40
-0.02805135747453747 -0.09351655987790469 0.06695716298522748 -0.4460979821572813 0.3210382410422642 0.835422666407682 0 0.007698791113081519 0 0 0 0 0 -20 40 30 10
-0.0276370044003297 -0.09237813416283724 0.06239542020052889 -0.4964894617337288 0.18258878877306584 0.8486221432685852 0 0.007698791113081519 0 0 0 0 0 -20 40 30 20
-0.02695801901809578 -0.09051263715700977 0.05811335310804383 -0.5468993139414285 0.04408885811436603 0.8360366657297972 0 0.007698791113081519 0 0 0 0 0 -20 40 30 30
-0.028229527305553205 -0.09400607746544849 0.055929936719233325 -0.4964894617337288 0.18258878877306575 0.8486221432685852 0 0.007698791113081519 0 0 0 0 0 -20 40 40 10
-0.027550541923319294 -0.09214058045962101 0.05164786962674826 -0.5468993139414285 0.04408885811436606 0.8360366657297972 0 0.007698791113081519 0 0 0 0 0 -20 40 40 20
-0.02949741579409709 -0.09748957245810926 0.07107053270692239 -0.39725599481969737 0.4552304983735647 0.7968392945722484 0 0.007698791113081519 0 0 0 0 0 -20 50 10 10
-0.029360284936402498 -0.09711280852308289 0.0663677204761701 -0.4460979821572813 0.321038241042264 0.8354226664076819 0 0.007698791113081519 0 0 0 0 0 -20 50 10 20
-0.02894593186219472 -0.09597438280801543 0.06180597769147149 -0.4964894617337288 0.1825887887730656 0.8486221432685852 0 0.007698791113081519 0 0 0 0 0 -20 50 10 30
-0.02826694647996081 -0.09410888580218797 0.05752391059898643 -0.5468993139414285 0.04408885811436589 0.836036665729797 0 0.007698791113081519 0 0 0 0 0 -20 50 10 40
-0.030327798745704734 -0.09977103086715132 0.060301293979875784 -0.44609798215728136 0.3210382410422641 0.8354226664076818 0 0.007698791113081519 0 0 0 0 0 -20 50 20 10
-0.029913445671496963 -0.09863260515208386 0.05573955119517718 -0.4964894617337288 0.18258878877306575 0.8486221432685851 0 0.007698791113081519 0 0 0 0 0 -20 50 20 20
-0.029234460289263048 -0.09676710814625639 0.05145748410269213 -0.5468993139414285 0.04408885811436603 0.836036665729797 0 0.007698791113081519 0 0 0 0 0 -20 50 20 30
-0.030505968576720468 -0.1002605484546951 0.04927406771388163 -0.4964894617337288 0.18258878877306567 0.848622143268585 0 0.007698791113081519 0 0 0 0 0 -20 50 30 10
-0.02982698319448655 -0.09839505144886762 0.04499200062139657 -0.5468993139414285 0.04408885811436606 0.836036665729797 0 0.007698791113081519 0 0 0 0 0 -20 50 30 20
-0.030026511686987164 -0.0989432514765509 0.038323910598986446 -0.5468993139414285 0.04408885811436595 0.836036665729797 0 0.007698791113081519 0 0 0 0 0 -20 50 40 10
-0.0019646490722751344 -0.043534549747701684 0.12381464664961159 -0.3931874155033059 0.8164929452495485 0.42277999017406015 0 0.007698791113081519 0 0 0 0 0 -10 10 10 10
-0.0024362373508216937 -0.04620905977816761 0.1199543617630965 -0.4078769429576788 0.7331844952587881 0.5441294779366803 0 0.007698791113081519 0 0 0 0 0 -10 10 10 20
-0.0027842593115012812 -0.04818279039659746 0.11568113499947404 -0.42600243827079887 0.6303897032179238 0.6489458668549959 0 0.007698791113081519 0 0 0 0 0 -10 10 10 30
-0.002998140483146258 -0.04939577079690615 0.11112480619159978 -0.4470131674395204 0.5112319368664422 0.7340443639913758 0 0.007698791113081519 0 0 0 0 0 -10 10 10 40
-0.0034896612568535825 -0.05218332362479694 0.11712554063024007 -0.4078769429576788 0.7331844952587883 0.5441294779366803 0 0.007698791113081519 0 0 0 0 0 -10 10 20 10
-0.00383768321753317 -0.05415705424322679 0.11285231386661762 -0.4260024382707989 0.6303897032179239 0.6489458668549959 0 0.007698791113081519 0 0 0 0 0 -10 10 20 20
-0.004051564389178144 -0.05537003464353548 0.10829598505874335 -0.4470131674395204 0.5112319368664423 0.7340443639913758 0 0.007698791113081519 0 0 0 0 0 -10 10 20 30
-0.004124806100617172 -0.055785409030057305 0.10359499595183096 -0.4702707300899935 0.37933174463819425 0.7968392945722484 0 0.007698791113081519 0 0 0 0 0 -10 10 20 40
-0.004789803853007774 -0.05955679869327678 0.10901304497706392 -0.42600243827079887 0.6303897032179238 0.6489458668549959 0 0.007698791113081519 0 0 0 0 0 -10 10 30 10
-0.0050036850246527485 -0.06076977909358547 0.10445671616918968 -0.44701316743952035 0.5112319368664422 0.7340443639913758 0 0.007698791113081519 0 0 0 0 0 -10 10 30 20
-0.005076926736091776 -0.06118515348010729 0.09975572706227727 -0.4702707300899935 0.3793317446381941 0.7968392945722486 0 0.007698791113081519 0 0 0 0 0 -10 10 30 30
-0.005007303574984868 -0.06079030091229739 0.09505291483152498 -0.49506845694997814 0.2386968471293171 0.835422666407682 0 0.007698791113081519 0 0 0 0 0 -10 10 30 40
-0.005825572685857458 -0.06543093564434387 0.09972365376538403 -0.44701316743952035 0.5112319368664422 0.7340443639913758 0 0.007698791113081519 0 0 0 0 0 -10 10 40 10
-0.005898814397296485 -0.0658463100308657 0.09502266465847162 -0.4702707300899935 0.3793317446381942 0.7968392945722486 0 0.007698791113081519 0 0 0 0 0 -10 10 40 20
-0.005829191236189579 -0.06545145746305578 0.09031985242771934 -0.49506845694997814 0.2386968471293171 0.8354226664076819 0 0.007698791113081519 0 0 0 0 0 -10 10 40 30
-0.005618818667055958 -0.06425837533638201 0.08575810964302073 -0.520652881637089 0.09360036453592639 0.8486221432685852 0 0.007698791113081519 0 0 0 0 0 -10 10 40 40
-0.0050684854472228804 -0.06113728055201101 0.11468932349001988 -0.4078769429576788 0.7331844952587883 0.5441294779366803 0 0.007698791113081519 0 0 0 0 0 -10 20 10 10
-0.00541650740790247 -0.06311101117044086 0.11041609672639743 -0.4260024382707989 0.6303897032179239 0.6489458668549959 0 0.007698791113081519 0 0 0 0 0 -10 20 10 20
-0.005630388579547442 -0.06432399157074956 0.10585976791852317 -0.4470131674395204 0.5112319368664423 0.7340443639913758 0 0.007698791113081519 0 0 0 0 0 -10 20 10 30
-0.00570363029098647 -0.06473936595727137 0.10115877881161078 -0.4702707300899935 0.37933174463819425 0.7968392945722484 0 0.007698791113081519 0 0 0 0 0 -10 20 10 40
-0.006368628043377072 -0.06851075562049083 0.10657682783684375 -0.42600243827079887 0.6303897032179239 0.6489458668549959 0 0.007698791113081519 0 0 0 0 0 -10 20 20 10
-0.0065825092150220465 -0.06972373602079951 0.10202049902896948 -0.44701316743952035 0.5112319368664423 0.7340443639913758 0 0.007698791113081519 0 0 0 0 0 -10 20 20 20
-0.006655750926461072 -0.07013911040732135 0.09731950992205708 -0.4702707300899935 0.3793317446381942 0.7968392945722486 0 0.007698791113081519 0 0 0 0 0 -10 20 20 30
-0.006586127765354166 -0.06974425783951145 0.09261669769130479 -0.49506845694997814 0.2386968471293171 0.835422666407682 0 0.007698791113081519 0 0 0 0 0 -10 20 20 40
-0.007404396876226756 -0.07438489257155792 0.09728743662516384 -0.44701316743952035 0.5112319368664423 0.7340443639913758 0 0.007698791113081519 0 0 0 0 0 -10 20 30 10
-0.007477638587665783 -0.07480026695807976 0.09258644751825144 -0.4702707300899935 0.3793317446381943 0.7968392945722486 0 0.007698791113081519 0 0 0 0 0 -10 20 30 20
-0.007408015426558877 -0.07440541439026985 0.08788363528749915 -0.49506845694997814 0.2386968471293172 0.835422666407682 0 0.007698791113081519 0 0 0 0 0 -10 20 30 30
-0.0071976428574252556 -0.07321233226359608 0.08332189250280056 -0.520652881637089 0.09360036453592649 0.8486221432685854 0 0.007698791113081519 0 0 0 0 0 -10 20 30 40
-0.008144320633910119 -0.07858120872641079 0.08710340330628834 -0.4702707300899935 0.37933174463819425 0.7968392945722486 0 0.007698791113081519 0 0 0 0 0 -10 20 40 10
-0.008074697472803215 -0.0781863561586009 0.08240059107553604 -0.49506845694997814 0.2386968471293172 0.835422666407682 0 0.007698791113081519 0 0 0 0 0 -10 20 40 20
-0.007864324903669593 -0.07699327403192711 0.07783884829083744 -0.520652881637089 0.09360036453592653 0.8486221432685852 0 0.007698791113081519 0 0 0 0 0 -10 20 40 30
-0.007850005411234416 -0.07691206415481333 0.10259879811876436 -0.42600243827079887 0.6303897032179239 0.6489458668549959 0 0.007698791113081519 0 0 0 0 0 -10 30 10 10
-0.00806388658287939 -0.07812504455512201 0.09804246931089011 -0.44701316743952035 0.5112319368664423 0.7340443639913758 0 0.007698791113081519 0 0 0 0 0 -10 30 10 20
-0.008137128294318417 -0.07854041894164385 0.09334148020397771 -0.4702707300899935 0.3793317446381942 0.7968392945722486 0 0.007698791113081519 0 0 0 0 0 -10 30 10 30
-0.00806750513321151 -0.07814556637383395 0.08863866797322542 -0.49506845694997814 0.2386968471293171 0.835422666407682 0 0.007698791113081519 0 0 0 0 0 -10 30 10 40
-0.0088857742440841 -0.08278620110588042 0.09330940690708447 -0.44701316743952035 0.5112319368664423 0.7340443639913758 0 0.007698791113081519 0 0 0 0 0 -10 30 20 10
-0.008959015955523127 -0.08320157549240226 0.08860841780017208 -0.4702707300899935 0.3793317446381943 0.7968392945722486 0 0.007698791113081519 0 0 0 0 0 -10 30 20 20
-0.008889392794416221 -0.08280672292459235 0.08390560556941978 -0.49506845694997814 0.2386968471293172 0.835422666407682 0 0.007698791113081519 0 0 0 0 0 -10 30 20 30
-0.0086790202252826 -0.08161364079791858 0.07934386278472118 -0.520652881637089 0.09360036453592649 0.8486221432685854 0 0.007698791113081519 0 0 0 0 0 -10 30 20 40
-0.009625698001767463 -0.08698251726073329 0.08312537358820897 -0.4702707300899935 0.3793317446381943 0.7968392945722486 0 0.007698791113081519 0 0 0 0 0 -10 30 30 10
-0.009556074840660558 -0.08658766469292341 0.07842256135745668 -0.49506845694997814 0.23869684712931724 0.8354226664076821 0 0.007698791113081519 0 0 0 0 0 -10 30 30 20
-0.009345702271526934 -0.08539458256624961 0.07386081857275807 -0.520652881637089 0.09360036453592659 0.8486221432685854 0 0.007698791113081519 0 0 0 0 0 -10 30 30 30
-0.01004729447532678 -0.08937350967644518 0.07235613486116235 -0.49506845694997814 0.23869684712931716 0.835422666407682 0 0.007698791113081519 0 0 0 0 0 -10 30 40 10
-0.00983692190619316 -0.08818042754977141 0.06779439207646375 -0.520652881637089 0.09360036453592653 0.8486221432685852 0 0.007698791113081519 0 0 0 0 0 -10 30 40 20
-0.010224693887720262 -0.0903795917387632 0.08791043503114962 -0.44701316743952035 0.5112319368664422 0.7340443639913758 0 0.007698791113081519 0 0 0 0 0 -10 40 10 10
-0.010297935599159286 -0.09079496612528505 0.0832094459242372 -0.4702707300899935 0.3793317446381942 0.7968392945722486 0 0.007698791113081519 0 0 0 0 0 -10 40 10 20
-0.01022831243805238 -0.09040011355747513 0.0785066336934849 -0.49506845694997814 0.2386968471293171 0.8354226664076819 0 0.007698791113081519 0 0 0 0 0 -10 40 10 30
-0.010017939868918756 -0.08920703143080137 0.07394489090878631 -0.520652881637089 0.09360036453592639 0.8486221432685852 0 0.007698791113081519 0 0 0 0 0 -10 40 10 40
-0.010964617645403626 -0.09457590789361607 0.0777264017122741 -0.4702707300899935 0.37933174463819425 0.7968392945722486 0 0.007698791113081519 0 0 0 0 0 -10 40 20 10
-0.010894994484296719 -0.09418105532580617 0.07302358948152181 -0.49506845694997814 0.2386968471293172 0.835422666407682 0 0.007698791113081519 0 0 0 0 0 -10 40 20 20
-0.010684621915163096 -0.0929879731991324 0.0684618466968232 -0.520652881637089 0.09360036453592653 0.8486221432685852 0 0.007698791113081519 0 0 0 0 0 -10 40 20 30
-0.01138621411896294 -0.09696690030932797 0.06695716298522748 -0.49506845694997814 0.23869684712931707 0.835422666407682 0 0.007698791113081519 0 0 0 0 0 -10 40 30 10
-0.01117584154982932 -0.0957738181826542 0.06239542020052889 -0.520652881637089 0.09360036453592645 0.8486221432685852 0 0.007698791113081519 0 0 0 0 0 -10 40 30 20
-0.01147667331288722 -0.09747991989124803 0.055929936719233325 -0.520652881637089 0.09360036453592642 0.8486221432685852 0 0.007698791113081519 0 0 0 0 0 -10 40 40 10
-0.012120397168972749 -0.10113065929312007 0.07107053270692239 -0.47027073008999354 0.3793317446381941 0.7968392945722484 0 0.007698791113081519 0 0 0 0 0 -10 50 10 10
-0.012050774007865845 -0.10073580672531016 0.0663677204761701 -0.49506845694997814 0.23869684712931707 0.8354226664076819 0 0.007698791113081519 0 0 0 0 0 -10 50 10 20
-0.011840401438732218 -0.0995427245986364 0.06180597769147149 -0.520652881637089 0.09360036453592645 0.8486221432685852 0 0.007698791113081519 0 0 0 0 0 -10 50 10 30
-0.012541993642532062 -0.10352165170883197 0.060301293979875784 -0.4950684569499782 0.23869684712931696 0.8354226664076818 0 0.007698791113081519 0 0 0 0 0 -10 50 20 10
-0.012331621073398441 -0.10232856958215819 0.05573955119517718 -0.520652881637089 0.09360036453592639 0.8486221432685851 0 0.007698791113081519 0 0 0 0 0 -10 50 20 20
-0.01263245283645634 -0.10403467129075201 0.04927406771388163 -0.520652881637089 0.09360036453592636 0.848622143268585 0 0.007698791113081519 0 0 0 0 0 -10 50 30 10
0.005624893590913927 -0.0432143198465879 0.12381464664961159 -0.5289965271949769 0.7358123045778086 0.42277999017406015 0 0.007698791113081519 0 0 0 0 0 0 10 10 10
0.005624893590913928 -0.04593008850527834 0.1199543617630965 -0.5289965271949769 0.6512186874622378 0.5441294779366803 0 0.007698791113081519 0 0 0 0 0 0 10 10 20
0.005624893590913929 -0.04793426709992572 0.11568113499947404 -0.5289965271949769 0.5468381200606831 0.6489458668549959 0 0.007698791113081519 0 0 0 0 0 0 10 10 30
0.005624893590913929 -0.04916595967809499 0.11112480619159978 -0.5289965271949769 0.4258421530945249 0.7340443639913758 0 0.007698791113081519 0 0 0 0 0 0 10 10 40
0.0056248935909139295 -0.05199651500157266 0.11712554063024007 -0.5289965271949769 0.6512186874622379 0.5441294779366803 0 0.007698791113081519 0 0 0 0 0 0 10 20 10
0.00562489359091393 -0.05400069359622004 0.11285231386661762 -0.5289965271949769 0.5468381200606832 0.6489458668549959 0 0.007698791113081519 0 0 0 0 0 0 10 20 20
0.0056248935909139295 -0.0552323861743893 0.10829598505874335 -0.5289965271949769 0.42584215309452506 0.7340443639913758 0 0.007698791113081519 0 0 0 0 0 0 10 20 30
0.00562489359091393 -0.0556541683803593 0.10359499595183096 -0.5289965271949769 0.29190718779311653 0.7968392945722484 0 0.007698791113081519 0 0 0 0 0 0 10 20 40
0.005624893590913931 -0.059483737808183154 0.10901304497706392 -0.5289965271949769 0.5468381200606831 0.6489458668549959 0 0.007698791113081519 0 0 0 0 0 0 10 30 10
0.005624893590913931 -0.06071543038635242 0.10445671616918968 -0.5289965271949769 0.42584215309452506 0.7340443639913758 0 0.007698791113081519 0 0 0 0 0 0 10 30 20
0.005624893590913931 -0.0611372125923224 0.09975572706227727 -0.5289965271949769 0.2919071877931166 0.7968392945722486 0 0.007698791113081519 0 0 0 0 0 0 10 30 30
0.00562489359091393 -0.06073626878719681 0.09505291483152498 -0.5289965271949768 0.14910277030277846 0.835422666407682 0 0.007698791113081519 0 0 0 0 0 0 10 30 40
0.005624893590913932 -0.06544849279015807 0.09972365376538403 -0.5289965271949769 0.4258421530945249 0.7340443639913758 0 0.007698791113081519 0 0 0 0 0 0 10 40 10
0.005624893590913932 -0.06587027499612806 0.09502266465847162 -0.5289965271949769 0.2919071877931165 0.7968392945722486 0 0.007698791113081519 0 0 0 0 0 0 10 40 20
0.005624893590913932 -0.06546933119100246 0.09031985242771934 -0.5289965271949768 0.14910277030277852 0.8354226664076819 0 0.007698791113081519 0 0 0 0 0 0 10 40 30
0.005624893590913932 -0.06425784384941266 0.08575810964302073 -0.5289965271949768 0.0017679405864328385 0.8486221432685852 0 0.007698791113081519 0 0 0 0 0 0 10 40 40
0.005624893590913931 -0.06108860114714453 0.11468932349001988 -0.5289965271949769 0.6512186874622379 0.5441294779366803 0 0.007698791113081519 0 0 0 0 0 0 20 10 10
0.005624893590913932 -0.06309277974179192 0.11041609672639743 -0.5289965271949769 0.5468381200606832 0.6489458668549959 0 0.007698791113081519 0 0 0 0 0 0 20 10 20
0.005624893590913932 -0.06432447231996118 0.10585976791852317 -0.5289965271949769 0.42584215309452506 0.7340443639913758 0 0.007698791113081519 0 0 0 0 0 0 20 10 30
0.005624893590913932 -0.06474625452593118 0.10115877881161078 -0.5289965271949769 0.29190718779311653 0.7968392945722484 0 0.007698791113081519 0 0 0 0 0 0 20 10 40
0.005624893590913933 -0.06857582395375503 0.10657682783684375 -0.5289965271949769 0.5468381200606831 0.6489458668549959 0 0.007698791113081519 0 0 0 0 0 0 20 20 10
0.005624893590913933 -0.0698075165319243 0.10202049902896948 -0.5289965271949769 0.42584215309452506 0.7340443639913758 0 0.007698791113081519 0 0 0 0 0 0 20 20 20
0.005624893590913933 -0.07022929873789428 0.09731950992205708 -0.5289965271949769 0.2919071877931166 0.7968392945722486 0 0.007698791113081519 0 0 0 0 0 0 20 20 30
0.005624893590913933 -0.06982835493276868 0.09261669769130479 -0.5289965271949768 0.14910277030277846 0.835422666407682 0 0.007698791113081519 0 0 0 0 0 0 20 20 40
0.005624893590913934 -0.07454057893572995 0.09728743662516384 -0.5289965271949769 0.425842153094525 0.7340443639913758 0 0.007698791113081519 0 0 0 0 0 0 20 30 10
0.005624893590913935 -0.07496236114169993 0.09258644751825144 -0.5289965271949769 0.2919071877931166 0.7968392945722486 0 0.007698791113081519 0 0 0 0 0 0 20 30 20
0.005624893590913934 -0.07456141733657433 0.08788363528749915 -0.5289965271949768 0.14910277030277858 0.835422666407682 0 0.007698791113081519 0 0 0 0 0 0 20 30 30
0.005624893590913934 -0.07334992999498453 0.08332189250280056 -0.5289965271949768 0.0017679405864327918 0.8486221432685854 0 0.007698791113081519 0 0 0 0 0 0 20 30 40
0.005624893590913936 -0.07880163003125362 0.08710340330628834 -0.5289965271949769 0.2919071877931166 0.7968392945722486 0 0.007698791113081519 0 0 0 0 0 0 20 40 10
0.005624893590913935 -0.07840068622612802 0.08240059107553604 -0.5289965271949768 0.1491027703027786 0.835422666407682 0 0.007698791113081519 0 0 0 0 0 0 20 40 20
0.005624893590913935 -0.07718919888453822 0.07783884829083744 -0.5289965271949768 0.0017679405864328855 0.8486221432685852 0 0.007698791113081519 0 0 0 0 0 0 20 40 30
0.005624893590913935 -0.07710673621416891 0.10259879811876436 -0.5289965271949769 0.5468381200606831 0.6489458668549959 0 0.007698791113081519 0 0 0 0 0 0 30 10 10
0.005624893590913935 -0.07833842879233817 0.09804246931089011 -0.5289965271949769 0.42584215309452506 0.7340443639913758 0 0.007698791113081519 0 0 0 0 0 0 30 10 20
0.005624893590913936 -0.07876021099830817 0.09334148020397771 -0.5289965271949769 0.2919071877931166 0.7968392945722486 0 0.007698791113081519 0 0 0 0 0 0 30 10 30
0.005624893590913935 -0.07835926719318256 0.08863866797322542 -0.5289965271949768 0.14910277030277846 0.835422666407682 0 0.007698791113081519 0 0 0 0 0 0 30 10 40
0.005624893590913936 -0.08307149119614383 0.09330940690708447 -0.5289965271949769 0.425842153094525 0.7340443639913758 0 0.007698791113081519 0 0 0 0 0 0 30 20 10
0.0056248935909139364 -0.08349327340211382 0.08860841780017208 -0.5289965271949769 0.2919071877931166 0.7968392945722486 0 0.007698791113081519 0 0 0 0 0 0 30 20 20
0.005624893590913936 -0.08309232959698822 0.08390560556941978 -0.5289965271949768 0.14910277030277858 0.835422666407682 0 0.007698791113081519 0 0 0 0 0 0 30 20 30
0.005624893590913936 -0.08188084225539842 0.07934386278472118 -0.5289965271949768 0.0017679405864327918 0.8486221432685854 0 0.007698791113081519 0 0 0 0 0 0 30 20 40
0.005624893590913937 -0.0873325422916675 0.08312537358820897 -0.5289965271949769 0.2919071877931166 0.7968392945722486 0 0.007698791113081519 0 0 0 0 0 0 30 30 10
0.0056248935909139364 -0.08693159848654189 0.07842256135745668 -0.5289965271949768 0.14910277030277858 0.8354226664076821 0 0.007698791113081519 0 0 0 0 0 0 30 30 20
0.0056248935909139364 -0.08572011114495211 0.07386081857275807 -0.5289965271949768 0.0017679405864328389 0.8486221432685854 0 0.007698791113081519 0 0 0 0 0 0 30 30 30
0.005624893590913937 -0.08976041961939833 0.07235613486116235 -0.5289965271949768 0.14910277030277844 0.835422666407682 0 0.007698791113081519 0 0 0 0 0 0 30 40 10
0.005624893590913937 -0.08854893227780855 0.06779439207646375 -0.5289965271949768 0.0017679405864327914 0.8486221432685852 0 0.007698791113081519 0 0 0 0 0 0 30 40 20
0.005624893590913937 -0.09078202211921696 0.08791043503114962 -0.5289965271949769 0.4258421530945249 0.7340443639913758 0 0.007698791113081519 0 0 0 0 0 0 40 10 10
0.005624893590913938 -0.09120380432518695 0.0832094459242372 -0.5289965271949769 0.2919071877931165 0.7968392945722486 0 0.007698791113081519 0 0 0 0 0 0 40 10 20
0.005624893590913937 -0.09080286052006133 0.0785066336934849 -0.5289965271949768 0.14910277030277852 0.8354226664076819 0 0.007698791113081519 0 0 0 0 0 0 40 10 30
0.005624893590913937 -0.08959137317847155 0.07394489090878631 -0.5289965271949768 0.0017679405864328385 0.8486221432685852 0 0.007698791113081519 0 0 0 0 0 0 40 10 40
0.005624893590913939 -0.09504307321474063 0.0777264017122741 -0.5289965271949769 0.2919071877931166 0.7968392945722486 0 0.007698791113081519 0 0 0 0 0 0 40 20 10
0.005624893590913938 -0.09464212940961503 0.07302358948152181 -0.5289965271949768 0.1491027703027786 0.835422666407682 0 0.007698791113081519 0 0 0 0 0 0 40 20 20
0.005624893590913938 -0.09343064206802523 0.0684618466968232 -0.5289965271949768 0.0017679405864328855 0.8486221432685852 0 0.007698791113081519 0 0 0 0 0 0 40 20 30
0.005624893590913939 -0.09747095054247147 0.06695716298522748 -0.5289965271949768 0.1491027703027785 0.835422666407682 0 0.007698791113081519 0 0 0 0 0 0 40 30 10
0.005624893590913939 -0.09625946320088168 0.06239542020052889 -0.5289965271949768 0.0017679405864328385 0.8486221432685852 0 0.007698791113081519 0 0 0 0 0 0 40 30 20
0.005624893590913939 -0.09799188427837158 0.055929936719233325 -0.5289965271949768 0.0017679405864327914 0.8486221432685852 0 0.007698791113081519 0 0 0 0 0 0 40 40 10
0.005624893590913941 -0.10169894222009232 0.07107053270692239 -0.5289965271949769 0.2919071877931163 0.7968392945722484 0 0.007698791113081519 0 0 0 0 0 0 50 10 10
0.00562489359091394 -0.10129799841496673 0.0663677204761701 -0.5289965271949768 0.14910277030277838 0.8354226664076819 0 0.007698791113081519 0 0 0 0 0 0 50 10 20
0.00562489359091394 -0.10008651107337693 0.06180597769147149 -0.5289965271949768 0.001767940586432697 0.8486221432685852 0 0.007698791113081519 0 0 0 0 0 0 50 10 30
0.005624893590913941 -0.10412681954782314 0.060301293979875784 -0.5289965271949768 0.14910277030277838 0.8354226664076818 0 0.007698791113081519 0 0 0 0 0 0 50 20 10
0.005624893590913941 -0.10291533220623336 0.05573955119517718 -0.5289965271949768 0.0017679405864327912 0.8486221432685851 0 0.007698791113081519 0 0 0 0 0 0 50 20 20
0.005624893590913941 -0.10464775328372328 0.04927406771388163 -0.5289965271949768 0.0017679405864327673 0.848622143268585 0 0.007698791113081519 0 0 0 0 0 0 50 30 10
0.013043526708676563 -0.04158104470443649 0.12381464664961159 -0.6487323470929874 0.6327743793704635 0.42277999017406015 0 0.007698791113081519 0 0 0 0 0 10 10 10 10
0.013515114987223124 -0.04425555473490241 0.1199543617630965 -0.6340428196386145 0.5494659293797032 0.5441294779366803 0 0.007698791113081519 0 0 0 0 0 10 10 10 20
0.013863136947902713 -0.04622928535333227 0.11568113499947404 -0.6159173243254943 0.4466711373388388 0.6489458668549959 0 0.007698791113081519 0 0 0 0 0 10 10 10 30
0.01407701811954769 -0.04744226575364095 0.11112480619159978 -0.5949065951567728 0.3275133709873572 0.7340443639913758 0 0.007698791113081519 0 0 0 0 0 10 10 10 40
0.014568538893255016 -0.05022981858153174 0.11712554063024007 -0.6340428196386145 0.5494659293797033 0.5441294779366803 0 0.007698791113081519 0 0 0 0 0 10 10 20 10
0.014916560853934602 -0.0522035491999616 0.11285231386661762 -0.6159173243254943 0.4466711373388389 0.6489458668549959 0 0.007698791113081519 0 0 0 0 0 10 10 20 20
0.01513044202557958 -0.05341652960027028 0.10829598505874335 -0.5949065951567728 0.3275133709873574 0.7340443639913758 0 0.007698791113081519 0 0 0 0 0 10 10 20 30
0.015203683737018605 -0.05383190398679211 0.10359499595183096 -0.5716490325062997 0.19561317875910927 0.7968392945722484 0 0.007698791113081519 0 0 0 0 0 10 10 20 40
0.01586868148940921 -0.057603293650011586 0.10901304497706392 -0.6159173243254943 0.4466711373388388 0.6489458668549959 0 0.007698791113081519 0 0 0 0 0 10 10 30 10
0.016082562661054185 -0.05881627405032027 0.10445671616918968 -0.5949065951567728 0.3275133709873573 0.7340443639913758 0 0.007698791113081519 0 0 0 0 0 10 10 30 20
0.01615580437249321 -0.0592316484368421 0.09975572706227727 -0.5716490325062997 0.1956131787591091 0.7968392945722486 0 0.007698791113081519 0 0 0 0 0 10 10 30 30
0.016086181211386306 -0.05883679586903219 0.09505291483152498 -0.5468513056463149 0.05497828125023218 0.835422666407682 0 0.007698791113081519 0 0 0 0 0 10 10 30 40
0.016904450322258898 -0.06347743060107867 0.09972365376538403 -0.5949065951567728 0.3275133709873573 0.7340443639913758 0 0.007698791113081519 0 0 0 0 0 10 10 40 10
0.016977692033697922 -0.06389280498760051 0.09502266465847162 -0.5716490325062997 0.19561317875910922 0.7968392945722486 0 0.007698791113081519 0 0 0 0 0 10 10 40 20
0.01690806887259102 -0.06349795241979059 0.09031985242771934 -0.5468513056463149 0.05497828125023218 0.8354226664076819 0 0.007698791113081519 0 0 0 0 0 10 10 40 30
0.016147363083624317 -0.05918377550874581 0.11468932349001988 -0.6340428196386145 0.5494659293797033 0.5441294779366803 0 0.007698791113081519 0 0 0 0 0 10 20 10 10
0.016495385044303906 -0.061157506127175666 0.11041609672639743 -0.6159173243254943 0.4466711373388389 0.6489458668549959 0 0.007698791113081519 0 0 0 0 0 10 20 10 20
0.01670926621594888 -0.06237048652748435 0.10585976791852317 -0.5949065951567728 0.3275133709873574 0.7340443639913758 0 0.007698791113081519 0 0 0 0 0 10 20 10 30
0.016782507927387908 -0.06278586091400618 0.10115877881161078 -0.5716490325062997 0.19561317875910927 0.7968392945722484 0 0.007698791113081519 0 0 0 0 0 10 20 10 40
0.017447505679778513 -0.06655725057722564 0.10657682783684375 -0.6159173243254943 0.4466711373388389 0.6489458668549959 0 0.007698791113081519 0 0 0 0 0 10 20 20 10
0.017661386851423485 -0.06777023097753432 0.10202049902896948 -0.5949065951567728 0.3275133709873574 0.7340443639913758 0 0.007698791113081519 0 0 0 0 0 10 20 20 20
0.017734628562862516 -0.06818560536405616 0.09731950992205708 -0.5716490325062997 0.19561317875910922 0.7968392945722486 0 0.007698791113081519 0 0 0 0 0 10 20 20 30
0.01766500540175561 -0.06779075279624626 0.09261669769130479 -0.5468513056463149 0.05497828125023218 0.835422666407682 0 0.007698791113081519 0 0 0 0 0 10 20 20 40
0.018483274512628198 -0.07243138752829271 0.09728743662516384 -0.5949065951567728 0.3275133709873574 0.7340443639913758 0 0.007698791113081519 0 0 0 0 0 10 20 30 10
0.018556516224067225 -0.07284676191481457 0.09258644751825144 -0.5716490325062997 0.19561317875910933 0.7968392945722486 0 0.007698791113081519 0 0 0 0 0 10 20 30 20
0.01848689306296032 -0.07245190934700466 0.08788363528749915 -0.5468513056463149 0.05497828125023229 0.835422666407682 0 0.007698791113081519 0 0 0 0 0 10 20 30 30
0.019223198270311565 -0.0766277036831456 0.08710340330628834 -0.5716490325062997 0.19561317875910927 0.7968392945722486 0 0.007698791113081519 0 0 0 0 0 10 20 40 10
0.01915357510920466 -0.0762328511153357 0.08240059107553604 -0.5468513056463149 0.05497828125023229 0.835422666407682 0 0.007698791113081519 0 0 0 0 0 10 20 40 20
0.01892888304763586 -0.07495855911154814 0.10259879811876436 -0.6159173243254943 0.4466711373388389 0.6489458668549959 0 0.007698791113081519 0 0 0 0 0 10 30 10 10
0.019142764219280833 -0.07617153951185682 0.09804246931089011 -0.5949065951567728 0.3275133709873574 0.7340443639913758 0 0.007698791113081519 0 0 0 0 0 10 30 10 20
0.01921600593071986 -0.07658691389837866 0.09334148020397771 -0.5716490325062997 0.19561317875910922 0.7968392945722486 0 0.007698791113081519 0 0 0 0 0 10 30 10 30
0.019146382769612957 -0.07619206133056876 0.08863866797322542 -0.5468513056463149 0.05497828125023218 0.835422666407682 0 0.007698791113081519 0 0 0 0 0 10 30 10 40
0.019964651880485546 -0.08083269606261521 0.09330940690708447 -0.5949065951567728 0.3275133709873574 0.7340443639913758 0 0.007698791113081519 0 0 0 0 0 10 30 20 10
0.020037893591924573 -0.08124807044913707 0.08860841780017208 -0.5716490325062997 0.19561317875910933 0.7968392945722486 0 0.007698791113081519 0 0 0 0 0 10 30 20 20
0.019968270430817666 -0.08085321788132716 0.08390560556941978 -0.5468513056463149 0.05497828125023229 0.835422666407682 0 0.007698791113081519 0 0 0 0 0 10 30 20 30
0.020704575638168913 -0.0850290122174681 0.08312537358820897 -0.5716490325062997 0.19561317875910933 0.7968392945722486 0 0.007698791113081519 0 0 0 0 0 10 30 30 10
0.020634952477062006 -0.0846341596496582 0.07842256135745668 -0.5468513056463149 0.05497828125023232 0.8354226664076821 0 0.007698791113081519 0 0 0 0 0 10 30 30 20
0.02112617211172823 -0.08742000463317999 0.07235613486116235 -0.5468513056463149 0.054978281250232235 0.835422666407682 0 0.007698791113081519 0 0 0 0 0 10 30 40 10
0.02130357152412171 -0.08842608669549801 0.08791043503114962 -0.5949065951567728 0.3275133709873573 0.7340443639913758 0 0.007698791113081519 0 0 0 0 0 10 40 10 10
0.021376813235560736 -0.08884146108201986 0.0832094459242372 -0.5716490325062997 0.19561317875910922 0.7968392945722486 0 0.007698791113081519 0 0 0 0 0 10 40 10 20
0.021307190074453832 -0.08844660851420993 0.0785066336934849 -0.5468513056463149 0.05497828125023218 0.8354226664076819 0 0.007698791113081519 0 0 0 0 0 10 40 10 30
0.022043495281805076 -0.09262240285035088 0.0777264017122741 -0.5716490325062997 0.19561317875910927 0.7968392945722486 0 0.007698791113081519 0 0 0 0 0 10 40 20 10
0.02197387212069817 -0.09222755028254098 0.07302358948152181 -0.5468513056463149 0.05497828125023229 0.835422666407682 0 0.007698791113081519 0 0 0 0 0 10 40 20 20
0.022465091755364392 -0.09501339526606278 0.06695716298522748 -0.5468513056463149 0.05497828125023215 0.835422666407682 0 0.007698791113081519 0 0 0 0 0 10 40 30 10
0.0231992748053742 -0.09917715424985488 0.07107053270692239 -0.5716490325062997 0.1956131787591091 0.7968392945722484 0 0.007698791113081519 0 0 0 0 0 10 50 10 10
0.023129651644267297 -0.09878230168204497 0.0663677204761701 -0.5468513056463149 0.05497828125023215 0.8354226664076819 0 0.007698791113081519 0 0 0 0 0 10 50 10 20
0.02362087127893352 -0.10156814666556678 0.060301293979875784 -0.5468513056463149 0.05497828125023204 0.8354226664076818 0 0.007698791113081519 0 0 0 0 0 10 50 20 10
0.020065838867739046 -0.03868435055996467 0.12381464664961159 -0.7487567628989845 0.510509924845233 0.42277999017406015 0 0.007698791113081519 0 0 0 0 0 20 10 10 10
0.020994686453623713 -0.04123633832829773 0.1199543617630965 -0.7198240418486803 0.4310179270761425 0.5441294779366803 0 0.007698791113081519 0 0 0 0 0 20 10 10 20
0.02168015590381525 -0.04311965016442495 0.11568113499947404 -0.6841237852255859 0.3329322781354557 0.6489458668549959 0 0.007698791113081519 0 0 0 0 0 20 10 10 30
0.02210141957593386 -0.04427706259120737 0.11112480619159978 -0.6427407272619926 0.2192332608325012 0.7340443639913758 0 0.007698791113081519 0 0 0 0 0 20 10 10 40
0.023069526513360934 -0.04693691454140561 0.11712554063024007 -0.7198240418486804 0.4310179270761426 0.5441294779366803 0 0.007698791113081519 0 0 0 0 0 20 10 20 10
0.023754995963552468 -0.048820226377532826 0.11285231386661762 -0.684123785225586 0.3329322781354557 0.6489458668549959 0 0.007698791113081519 0 0 0 0 0 20 10 20 20
0.02417625963567108 -0.049977638804315244 0.10829598505874335 -0.6427407272619927 0.2192332608325012 0.7340443639913758 0 0.007698791113081519 0 0 0 0 0 20 10 20 30
0.02432051764620915 -0.050373984430844045 0.10359499595183096 -0.5969322712332864 0.09337556227355111 0.7968392945722484 0 0.007698791113081519 0 0 0 0 0 20 10 20 40
0.02563030753078907 -0.053972602562957446 0.10901304497706392 -0.6841237852255859 0.33293227813545556 0.6489458668549959 0 0.007698791113081519 0 0 0 0 0 20 10 30 10
0.026051571202907683 -0.05513001498973987 0.10445671616918968 -0.6427407272619927 0.2192332608325013 0.7340443639913758 0 0.007698791113081519 0 0 0 0 0 20 10 30 20
0.026195829213445758 -0.055526360616268665 0.09975572706227727 -0.5969322712332864 0.09337556227355111 0.7968392945722486 0 0.007698791113081519 0 0 0 0 0 20 10 30 30
0.02767037388462663 -0.05957763880431524 0.09972365376538403 -0.6427407272619927 0.21923326083250114 0.7340443639913758 0 0.007698791113081519 0 0 0 0 0 20 10 40 10
0.0278146318951647 -0.059973984430844035 0.09502266465847162 -0.5969322712332864 0.09337556227355111 0.7968392945722486 0 0.007698791113081519 0 0 0 0 0 20 10 40 20
0.026179203119998752 -0.05548068079994928 0.11468932349001988 -0.7198240418486804 0.4310179270761426 0.5441294779366803 0 0.007698791113081519 0 0 0 0 0 20 20 10 10
0.026864672570190287 -0.0573639926360765 0.11041609672639743 -0.684123785225586 0.3329322781354557 0.6489458668549959 0 0.007698791113081519 0 0 0 0 0 20 20 10 20
0.027285936242308902 -0.058521405062858925 0.10585976791852317 -0.6427407272619927 0.2192332608325012 0.7340443639913758 0 0.007698791113081519 0 0 0 0 0 20 20 10 30
0.02743019425284697 -0.05891775068938772 0.10115877881161078 -0.5969322712332864 0.09337556227355111 0.7968392945722484 0 0.007698791113081519 0 0 0 0 0 20 20 10 40
0.028739984137426896 -0.0625163688215011 0.10657682783684375 -0.6841237852255859 0.33293227813545545 0.6489458668549959 0 0.007698791113081519 0 0 0 0 0 20 20 20 10
0.02916124780954551 -0.06367378124828355 0.10202049902896948 -0.6427407272619927 0.2192332608325012 0.7340443639913758 0 0.007698791113081519 0 0 0 0 0 20 20 20 20
0.02930550582008358 -0.06407012687481235 0.09731950992205708 -0.5969322712332864 0.09337556227355105 0.7968392945722486 0 0.007698791113081519 0 0 0 0 0 20 20 20 30
0.03078005049126445 -0.06812140506285895 0.09728743662516384 -0.6427407272619927 0.2192332608325012 0.7340443639913758 0 0.007698791113081519 0 0 0 0 0 20 20 30 10
0.03092430850180252 -0.06851775068938773 0.09258644751825144 -0.5969322712332865 0.09337556227355111 0.7968392945722486 0 0.007698791113081519 0 0 0 0 0 20 20 30 20
0.032237415797673453 -0.07212548333411425 0.08710340330628834 -0.5969322712332864 0.093375562273551 0.7968392945722486 0 0.007698791113081519 0 0 0 0 0 20 20 40 10
0.031657727971432355 -0.0705328041211841 0.10259879811876436 -0.6841237852255859 0.33293227813545556 0.6489458668549959 0 0.007698791113081519 0 0 0 0 0 20 30 10 10
0.03207899164355097 -0.07169021654796653 0.09804246931089011 -0.6427407272619927 0.2192332608325013 0.7340443639913758 0 0.007698791113081519 0 0 0 0 0 20 30 10 20
0.03222324965408904 -0.07208656217449533 0.09334148020397771 -0.5969322712332864 0.09337556227355111 0.7968392945722486 0 0.007698791113081519 0 0 0 0 0 20 30 10 30
0.03369779432526992 -0.07613784036254191 0.09330940690708447 -0.6427407272619927 0.2192332608325012 0.7340443639913758 0 0.007698791113081519 0 0 0 0 0 20 30 20 10
0.03384205233580798 -0.0765341859890707 0.08860841780017208 -0.5969322712332865 0.09337556227355111 0.7968392945722486 0 0.007698791113081519 0 0 0 0 0 20 30 20 20
0.035155159631678916 -0.08014191863379723 0.08312537358820897 -0.5969322712332864 0.093375562273551 0.7968392945722486 0 0.007698791113081519 0 0 0 0 0 20 30 30 10
0.03633495121669639 -0.08338336937329528 0.08791043503114962 -0.6427407272619927 0.21923326083250114 0.7340443639913758 0 0.007698791113081519 0 0 0 0 0 20 40 10 10
0.03647920922723445 -0.08377971499982408 0.0832094459242372 -0.5969322712332864 0.09337556227355111 0.7968392945722486 0 0.007698791113081519 0 0 0 0 0 20 40 10 20
0.03779231652310539 -0.08738744764455059 0.0777264017122741 -0.5969322712332864 0.09337556227355111 0.7968392945722486 0 0.007698791113081519 0 0 0 0 0 20 40 20 10
0.04006875779427265 -0.0936419186337972 0.07107053270692239 -0.5969322712332864 0.09337556227355083 0.7968392945722484 0 0.007698791113081519 0 0 0 0 0 20 50 10 10
-0.020554115001796158 -0.03805497484654443 0.12388884531269664 0.7825453100681896 0.46875877996634463 0.4097414839472537 0 0.007281619532218818 0 0 0 0 0 -20 10 10 10
-0.021489574639975317 -0.04062512907925285 0.12010113284413165 0.7545307717893976 0.39178946862891645 0.5264830163138404 0 0.007281619532218818 0 0 0 0 0 -20 10 10 20
-0.022185865851676416 -0.042538173460766326 0.11589601893343181 0.7200084205619097 0.2969400881649115 0.6272276286429922 0 0.007281619532218818 0 0 0 0 0 -20 10 10 30
-0.022621832180772274 -0.04373598110559971 0.11140127383888336 0.6800272005586202 0.1870925890036261 0.708914246868321 0 0.007281619532218818 0 0 0 0 0 -20 10 10 40
-0.02356441469971253 -0.04632570529236075 0.11727231171127522 0.7545307717893978 0.39178946862891656 0.5264830163138404 0 0.007281619532218818 0 0 0 0 0 -20 10 20 10
-0.02426070591141363 -0.04823874967387422 0.11306719780057539 0.7200084205619097 0.2969400881649115 0.6272276286429921 0 0.007281619532218818 0 0 0 0 0 -20 10 20 20
-0.024696672240509487 -0.0494365573187076 0.10857245270602693 0.6800272005586202 0.1870925890036261 0.708914246868321 0 0.007281619532218818 0 0 0 0 0 -20 10 20 30
-0.024859067070700132 -0.04988273344769256 0.10392464698287701 0.6358019209178557 0.06558463182155934 0.7690608644304738 0 0.007281619532218818 0 0 0 0 0 -20 10 20 40
-0.02613601747865023 -0.05339112585929884 0.10922792891102169 0.7200084205619097 0.2969400881649114 0.6272276286429922 0 0.007281619532218818 0 0 0 0 0 -20 10 30 10
-0.02657198380774609 -0.05458893350413222 0.10473318381647326 0.6800272005586202 0.18709258900362621 0.708914246868321 0 0.007281619532218818 0 0 0 0 0 -20 10 30 20
-0.02673437863793673 -0.05503510963311719 0.10008537809332332 0.6358019209178557 0.0655846318215594 0.769060864430474 0 0.007281619532218818 0 0 0 0 0 -20 10 30 30
-0.02819078648946503 -0.0590365573187076 0.1000001214126676 0.6800272005586202 0.18709258900362605 0.708914246868321 0 0.007281619532218818 0 0 0 0 0 -20 10 40 10
-0.028353181319655675 -0.05948273344769256 0.09535231568951767 0.6358019209178557 0.06558463182155934 0.769060864430474 0 0.007281619532218818 0 0 0 0 0 -20 10 40 20
-0.026674091306350352 -0.054869471550904415 0.11483609457105504 0.7545307717893978 0.39178946862891656 0.5264830163138404 0 0.007281619532218818 0 0 0 0 0 -20 20 10 10
-0.027370382518051448 -0.05678251593241789 0.1106309806603552 0.7200084205619097 0.2969400881649115 0.6272276286429921 0 0.007281619532218818 0 0 0 0 0 -20 20 10 20
-0.027806348847147302 -0.05798032357725128 0.10613623556580674 0.6800272005586202 0.1870925890036261 0.708914246868321 0 0.007281619532218818 0 0 0 0 0 -20 20 10 30
-0.027968743677337947 -0.058426499706236236 0.10148842984265684 0.6358019209178557 0.06558463182155934 0.7690608644304738 0 0.007281619532218818 0 0 0 0 0 -20 20 10 40
-0.02924569408528805 -0.0619348921178425 0.10679171177080152 0.7200084205619097 0.29694008816491135 0.6272276286429922 0 0.007281619532218818 0 0 0 0 0 -20 20 20 10
-0.029681660414383908 -0.0631326997626759 0.10229696667625306 0.6800272005586202 0.1870925890036261 0.708914246868321 0 0.007281619532218818 0 0 0 0 0 -20 20 20 20
-0.02984405524457455 -0.06357887589166085 0.09764916095310314 0.6358019209178557 0.06558463182155928 0.769060864430474 0 0.007281619532218818 0 0 0 0 0 -20 20 20 30
-0.03130046309610285 -0.06758032357725129 0.09756390427244742 0.6800272005586202 0.1870925890036261 0.7089142468683212 0 0.007281619532218818 0 0 0 0 0 -20 20 30 10
-0.03146285792629349 -0.06802649970623623 0.0929160985492975 0.6358019209178558 0.0655846318215594 0.7690608644304741 0 0.007281619532218818 0 0 0 0 0 -20 20 30 20
-0.03277596522216442 -0.07163423235096275 0.08743305433733439 0.6358019209178557 0.06558463182155923 0.769060864430474 0 0.007281619532218818 0 0 0 0 0 -20 20 40 10
-0.032163437919293505 -0.06995132741752547 0.10281368205272214 0.7200084205619097 0.2969400881649114 0.6272276286429922 0 0.007281619532218818 0 0 0 0 0 -20 30 10 10
-0.03259940424838937 -0.07114913506235887 0.09831893695817369 0.6800272005586202 0.18709258900362621 0.708914246868321 0 0.007281619532218818 0 0 0 0 0 -20 30 10 20
-0.032761799078580005 -0.07159531119134382 0.09367113123502377 0.6358019209178557 0.0655846318215594 0.769060864430474 0 0.007281619532218818 0 0 0 0 0 -20 30 10 30
-0.03421820693010831 -0.07559675887693425 0.09358587455436805 0.6800272005586202 0.1870925890036261 0.7089142468683212 0 0.007281619532218818 0 0 0 0 0 -20 30 20 10
-0.03438060176029895 -0.0760429350059192 0.08893806883121813 0.6358019209178558 0.0655846318215594 0.7690608644304741 0 0.007281619532218818 0 0 0 0 0 -20 30 20 20
-0.035693709056169885 -0.07965066765064573 0.08345502461925502 0.6358019209178557 0.06558463182155923 0.769060864430474 0 0.007281619532218818 0 0 0 0 0 -20 30 30 10
-0.03685536382153478 -0.08284228788768762 0.08818690267843318 0.6800272005586202 0.18709258900362605 0.708914246868321 0 0.007281619532218818 0 0 0 0 0 -20 40 10 10
-0.03701775865172542 -0.08328846401667257 0.08353909695528325 0.6358019209178557 0.06558463182155934 0.769060864430474 0 0.007281619532218818 0 0 0 0 0 -20 40 10 20
-0.03833086594759635 -0.08689619666139911 0.07805605274332016 0.6358019209178557 0.06558463182155934 0.769060864430474 0 0.007281619532218818 0 0 0 0 0 -20 40 20 10
-0.04060730721876361 -0.09315066765064574 0.07140018373796844 0.6358019209178557 0.06558463182155912 0.7690608644304738 0 0.007281619532218818 0 0 0 0 0 -20 50 10 10
-0.013633674776810083 -0.04104601888317992 0.12388884531269664 0.6892575805319661 0.5975248478385436 0.4097414839472537 0 0.007281619532218818 0 0 0 0 0 -10 10 10 10
-0.014108620082286145 -0.0437395675594391 0.12010113284413165 0.6750342266879775 0.5168601997691415 0.5264830163138404 0 0.007281619532218818 0 0 0 0 0 -10 10 10 20
-0.014462136395277879 -0.045744458198247406 0.11589601893343181 0.6575067696173487 0.41745705114035364 0.6272276286429922 0 0.007281619532218818 0 0 0 0 0 -10 10 10 30
-0.014683482301502916 -0.04699977321206826 0.11140127383888336 0.6372077722338493 0.30233571632284595 0.708914246868321 0 0.007281619532218818 0 0 0 0 0 -10 10 10 40
-0.015162043988318035 -0.04971383140606843 0.11727231171127522 0.6750342266879775 0.5168601997691417 0.5264830163138404 0 0.007281619532218818 0 0 0 0 0 -10 10 20 10
-0.015515560301309766 -0.051718722044876736 0.11306719780057539 0.6575067696173487 0.41745705114035375 0.6272276286429921 0 0.007281619532218818 0 0 0 0 0 -10 10 20 20
-0.015736906207534804 -0.05297403705869759 0.10857245270602693 0.6372077722338493 0.30233571632284606 0.708914246868321 0 0.007281619532218818 0 0 0 0 0 -10 10 20 30
-0.015819356223638927 -0.05344163433605608 0.10392464698287701 0.6147540093011887 0.17499409882084213 0.7690608644304738 0 0.007281619532218818 0 0 0 0 0 -10 10 20 40
-0.01646768093678437 -0.05711846649492672 0.10922792891102169 0.6575067696173487 0.41745705114035364 0.6272276286429922 0 0.007281619532218818 0 0 0 0 0 -10 10 30 10
-0.016689026843009408 -0.05837378150874758 0.10473318381647326 0.6372077722338493 0.302335716322846 0.708914246868321 0 0.007281619532218818 0 0 0 0 0 -10 10 30 20
-0.01677147685911353 -0.058841378786106076 0.10008537809332332 0.6147540093011887 0.17499409882084196 0.769060864430474 0 0.007281619532218818 0 0 0 0 0 -10 10 30 30
-0.016712525783079135 -0.05850705062034532 0.09542573296656665 0.5908277270439236 0.039301409244172684 0.8058399567904817 0 0.007281619532218818 0 0 0 0 0 -10 10 30 40
-0.017510914504214117 -0.06303493805950597 0.1000001214126676 0.6372077722338493 0.302335716322846 0.708914246868321 0 0.007281619532218818 0 0 0 0 0 -10 10 40 10
-0.01759336452031824 -0.0635025353368645 0.09535231568951767 0.6147540093011887 0.17499409882084208 0.769060864430474 0 0.007281619532218818 0 0 0 0 0 -10 10 40 20
-0.017534413444283848 -0.06316820717110372 0.09069267056276101 0.5908277270439236 0.039301409244172684 0.8058399567904816 0 0.007281619532218818 0 0 0 0 0 -10 10 40 30
-0.01674086817868733 -0.0586677883332825 0.11483609457105504 0.6750342266879775 0.5168601997691417 0.5264830163138404 0 0.007281619532218818 0 0 0 0 0 -10 20 10 10
-0.017094384491679066 -0.060672678972090804 0.1106309806603552 0.6575067696173487 0.41745705114035375 0.6272276286429921 0 0.007281619532218818 0 0 0 0 0 -10 20 10 20
-0.0173157303979041 -0.06192799398591166 0.10613623556580674 0.6372077722338493 0.30233571632284606 0.708914246868321 0 0.007281619532218818 0 0 0 0 0 -10 20 10 30
-0.017398180414008226 -0.06239559126327015 0.10148842984265684 0.6147540093011887 0.17499409882084213 0.7690608644304738 0 0.007281619532218818 0 0 0 0 0 -10 20 10 40
-0.01804650512715367 -0.06607242342214077 0.10679171177080152 0.6575067696173487 0.41745705114035375 0.6272276286429922 0 0.007281619532218818 0 0 0 0 0 -10 20 20 10
-0.018267851033378704 -0.06732773843596163 0.10229696667625306 0.6372077722338493 0.30233571632284606 0.708914246868321 0 0.007281619532218818 0 0 0 0 0 -10 20 20 20
-0.018350301049482827 -0.06779533571332014 0.09764916095310314 0.6147540093011887 0.17499409882084208 0.769060864430474 0 0.007281619532218818 0 0 0 0 0 -10 20 20 30
-0.018291349973448435 -0.06746100754755939 0.09298951582634646 0.5908277270439236 0.039301409244172684 0.8058399567904817 0 0.007281619532218818 0 0 0 0 0 -10 20 20 40
-0.019089738694583414 -0.07198889498672002 0.09756390427244742 0.6372077722338493 0.30233571632284606 0.7089142468683212 0 0.007281619532218818 0 0 0 0 0 -10 20 30 10
-0.01917218871068754 -0.07245649226407855 0.0929160985492975 0.6147540093011887 0.17499409882084213 0.7690608644304741 0 0.007281619532218818 0 0 0 0 0 -10 20 30 20
