# .PCD v0.7 - Point Cloud Data file format
VERSION 0.7
FIELDS x y z normal_x normal_y normal_z curvature xx xy xz zx zy zz a0 a1 a2 a3
SIZE 4 4 4 4 4 4 4 4 4 4 4 4 4 4 4 4 4
TYPE F F F F F F F F F F F F F F F F F
COUNT 1 1 1 1 1 1 1 1 1 1 1 1 1 1 1 1 1
WIDTH 286
HEIGHT 1
VIEWPOINT 0 0 0 1 0 0 0
POINTS 286
DATA ascii
-0.0826760771164086 -0.09183166879621855 0.059975292289145846 0.0014638447166439158 0.15129897394921257 0.9884869532852213 0 0.007635511112647286 0 0 0 0 0 -20 40 30 10
-0.08457282643299877 -0.09605435238262389 0.06402092907351424 0.06273563442021436 0.3095041647637443 0.9488263230656747 0 0.007635511112647286 0 0 0 0 0 -20 50 10 10
-0.08392865041445613 -0.09542791744139675 0.059274012241713595 0.0014638447166438122 0.15129897394921238 0.9884869532852212 0 0.007635511112647286 0 0 0 0 0 -20 50 10 20
-0.0843637586348096 -0.09808613978546518 0.05314634594509519 0.0014638447166438328 0.15129897394921243 0.9884869532852213 0 0.007635511112647286 0 0 0 0 0 -20 50 20 10
-0.062107484594489414 -0.04390815998736086 0.11966771771803139 0.13594955583639873 0.8464448182690697 0.5148289687535705 0 0.007635511112647286 0 0 0 0 0 -10 10 10 10
-0.062194390072544764 -0.04643425328005683 0.11555044884158328 0.10620011443205477 0.7478250919660512 0.6553465851708721 0 0.007635511112647286 0 0 0 0 0 -10 10 10 20
-0.06211817423113533 -0.04822184966940359 0.11106276645745664 0.07413538797711895 0.6263217335378404 0.7760315776578777 0 0.007635511112647286 0 0 0 0 0 -10 10 10 30
-0.061881152850035266 -0.049216633943678284 0.10634102652401631 0.04072964695939004 0.48562656104661234 0.8732169937874219 0 0.007635511112647286 0 0 0 0 0 -10 10 10 40
-0.06299725737578712 -0.052408517126686156 0.11264058028426337 0.10620011443205479 0.7478250919660513 0.6553465851708721 0 0.007635511112647286 0 0 0 0 0 -10 10 20 10
-0.06292104153437769 -0.05419611351603292 0.10815289790013673 0.074135387977119 0.6263217335378405 0.7760315776578776 0 0.007635511112647286 0 0 0 0 0 -10 10 20 20
-0.06268402015327762 -0.055190897790307614 0.1034311579666964 0.04072964695939004 0.48562656104661245 0.8732169937874218 0 0.007635511112647286 0 0 0 0 0 -10 10 20 30
-0.06229339500721304 -0.05536264393272152 0.09861882816250427 0.0069979079155711235 0.33001452611332066 0.9439499038686024 0 0.007635511112647286 0 0 0 0 0 -10 10 20 40
-0.06353492473189848 -0.0595958579660829 0.10424525580667512 0.07413538797711897 0.6263217335378404 0.7760315776578776 0 0.007635511112647286 0 0 0 0 0 -10 10 30 10
-0.0632979033507984 -0.0605906422403576 0.0995235158732348 0.04072964695939005 0.4856265610466124 0.8732169937874218 0 0.007635511112647286 0 0 0 0 0 -10 10 30 20
-0.06290727820473382 -0.06076238838277151 0.09471118606904266 0.0069979079155711235 0.33001452611332055 0.9439499038686024 0 0.007635511112647286 0 0 0 0 0 -10 10 30 30
-0.062374918241102036 -0.060105877973695127 0.08995448660004272 -0.026034907332574925 0.16421382167592422 0.986081124221182 0 0.007635511112647286 0 0 0 0 0 -10 10 30 40
-0.06370414991228085 -0.06525179879111599 0.09473683197127898 0.04072964695939003 0.4856265610466124 0.8732169937874219 0 0.007635511112647286 0 0 0 0 0 -10 10 40 10
-0.06331352476621627 -0.0654235449335299 0.08992450216708686 0.0069979079155711235 0.33001452611332066 0.9439499038686024 0 0.007635511112647286 0 0 0 0 0 -10 10 40 20
-0.06278116480258447 -0.06476703452445352 0.08516780269808694 -0.02603490733257491 0.16421382167592422 0.9860811242211822 0 0.007635511112647286 0 0 0 0 0 -10 10 40 30
-0.06435774334922904 -0.06136247405390021 0.11007603009086382 0.10620011443205485 0.7478250919660513 0.6553465851708721 0 0.007635511112647286 0 0 0 0 0 -10 20 10 10
-0.0642815275078196 -0.06315007044324698 0.1055883477067372 0.07413538797711905 0.6263217335378405 0.7760315776578776 0 0.007635511112647286 0 0 0 0 0 -10 20 10 20
-0.06404450612671954 -0.06414485471752167 0.10086660777329685 0.040729646959390124 0.4856265610466125 0.8732169937874219 0 0.007635511112647286 0 0 0 0 0 -10 20 10 30
-0.06365388098065496 -0.06431660085993557 0.09605427796910473 0.006997907915571207 0.3300145261133207 0.9439499038686024 0 0.007635511112647286 0 0 0 0 0 -10 20 10 40
-0.0648954107053404 -0.06854981489329696 0.1016807056132756 0.07413538797711904 0.6263217335378405 0.7760315776578776 0 0.007635511112647286 0 0 0 0 0 -10 20 20 10
-0.06465838932424033 -0.06954459916757165 0.09695896567983527 0.04072964695939014 0.4856265610466125 0.8732169937874218 0 0.007635511112647286 0 0 0 0 0 -10 20 20 20
-0.06426776417817574 -0.06971634530998556 0.09214663587564313 0.006997907915571207 0.33001452611332066 0.9439499038686024 0 0.007635511112647286 0 0 0 0 0 -10 20 20 30
-0.06373540421454398 -0.06905983490090918 0.08738993640664322 -0.026034907332574835 0.16421382167592422 0.9860811242211822 0 0.007635511112647286 0 0 0 0 0 -10 20 20 40
-0.06506463588572277 -0.07420575571833005 0.09217228177787946 0.04072964695939011 0.48562656104661256 0.8732169937874219 0 0.007635511112647286 0 0 0 0 0 -10 20 30 10
-0.06467401073965819 -0.07437750186074396 0.08735995197368734 0.0069979079155712 0.3300145261133208 0.9439499038686024 0 0.007635511112647286 0 0 0 0 0 -10 20 30 20
-0.0641416507760264 -0.07372099145166759 0.0826032525046874 -0.02603490733257483 0.16421382167592438 0.9860811242211822 0 0.007635511112647286 0 0 0 0 0 -10 20 30 30
-0.06486027706890231 -0.07815844362907501 0.08183966723141936 0.0069979079155712 0.3300145261133207 0.9439499038686024 0 0.007635511112647286 0 0 0 0 0 -10 20 40 10
-0.06432791710527053 -0.07750193321999864 0.07708296776241944 -0.02603490733257483 0.16421382167592433 0.9860811242211822 0 0.007635511112647286 0 0 0 0 0 -10 20 40 20
-0.06602444285052496 -0.07695112342761946 0.09758870295454446 0.07413538797711901 0.6263217335378405 0.7760315776578774 0 0.007635511112647286 0 0 0 0 0 -10 30 10 10
-0.0657874214694249 -0.07794590770189415 0.09286696302110413 0.04072964695939013 0.4856265610466125 0.8732169937874218 0 0.007635511112647286 0 0 0 0 0 -10 30 10 20
-0.06539679632336032 -0.07811765384430808 0.088054633216912 0.0069979079155712345 0.33001452611332066 0.9439499038686023 0 0.007635511112647286 0 0 0 0 0 -10 30 10 30
-0.06486443635972854 -0.0774611434352317 0.08329793374791207 -0.026034907332574794 0.16421382167592422 0.986081124221182 0 0.007635511112647286 0 0 0 0 0 -10 30 10 40
-0.06619366803090733 -0.08260706425265256 0.08808027911914833 0.04072964695939013 0.4856265610466125 0.8732169937874218 0 0.007635511112647286 0 0 0 0 0 -10 30 20 10
-0.06580304288484275 -0.08277881039506647 0.08326794931495621 0.0069979079155712415 0.33001452611332077 0.9439499038686023 0 0.007635511112647286 0 0 0 0 0 -10 30 20 20
-0.06527068292121097 -0.0821222999859901 0.07851124984595627 -0.026034907332574787 0.16421382167592433 0.9860811242211821 0 0.007635511112647286 0 0 0 0 0 -10 30 20 30
-0.06598930921408687 -0.08655975216339751 0.07774766457268824 0.006997907915571214 0.33001452611332077 0.9439499038686023 0 0.007635511112647286 0 0 0 0 0 -10 30 30 10
-0.06545694925045509 -0.08590324175432114 0.0729909651036883 -0.0260349073325748 0.16421382167592438 0.9860811242211821 0 0.007635511112647286 0 0 0 0 0 -10 30 30 20
-0.06541757573930213 -0.08868908673784294 0.06690481057960311 -0.026034907332574794 0.16421382167592427 0.986081124221182 0 0.007635511112647286 0 0 0 0 0 -10 30 40 10
-0.06705694127742094 -0.09020045488553534 0.08258515742521794 0.040729646959390096 0.4856265610466124 0.8732169937874219 0 0.007635511112647286 0 0 0 0 0 -10 40 10 10
-0.06666631613135636 -0.09037220102794927 0.07777282762102582 0.006997907915571228 0.33001452611332066 0.9439499038686024 0 0.007635511112647286 0 0 0 0 0 -10 40 10 20
-0.06613395616772458 -0.08971569061887287 0.07301612815202589 -0.026034907332574794 0.16421382167592422 0.9860811242211822 0 0.007635511112647286 0 0 0 0 0 -10 40 10 30
-0.06685258246060047 -0.09415314279628029 0.07225254287875786 0.006997907915571214 0.3300145261133207 0.9439499038686024 0 0.007635511112647286 0 0 0 0 0 -10 40 20 10
-0.0663202224969687 -0.09349663238720395 0.06749584340975791 -0.026034907332574766 0.16421382167592433 0.9860811242211822 0 0.007635511112647286 0 0 0 0 0 -10 40 20 20
-0.06628084898581571 -0.0962824773707257 0.06140968888567272 -0.026034907332574794 0.16421382167592416 0.9860811242211822 0 0.007635511112647286 0 0 0 0 0 -10 40 30 10
-0.06742386668768513 -0.10070789419578428 0.06552126864163249 0.006997907915571155 0.3300145261133205 0.9439499038686023 0 0.007635511112647286 0 0 0 0 0 -10 50 10 10
-0.06689150672405336 -0.10005138378670791 0.060764569172632565 -0.02603490733257482 0.1642138216759241 0.986081124221182 0 0.007635511112647286 0 0 0 0 0 -10 50 10 20
-0.06685213321290039 -0.10283722877022972 0.05467841464854736 -0.02603490733257482 0.16421382167592405 0.986081124221182 0 0.007635511112647286 0 0 0 0 0 -10 50 20 10
-0.05439126631072262 -0.04462551594118894 0.12034279934276587 -0.013203504428864518 0.8648946249212293 0.5017797668576333 0 0.007635511112647286 0 0 0 0 0 0 10 10 10
-0.05403444833698707 -0.0471905782946985 0.11626435123806783 -0.025629798862992163 0.7647535303762557 0.6438129622505542 0 0.007635511112647286 0 0 0 0 0 0 10 10 20
-0.053644230458288124 -0.04900575123975207 0.11180414047251234 -0.036351730987313945 0.6413757867947583 0.7663652072883844 0 0.007635511112647286 0 0 0 0 0 0 10 10 30
-0.05323246924741028 -0.05001588166493604 0.10709768829323527 -0.04504352031979182 0.49851016448331015 0.8657128140200777 0 0.007635511112647286 0 0 0 0 0 0 10 10 40
-0.053787900330192796 -0.05325700479099281 0.1134462946236541 -0.025629798862992156 0.7647535303762558 0.6438129622505543 0 0.007635511112647286 0 0 0 0 0 0 10 20 10
-0.05339768245149385 -0.05507217773604639 0.10898608385809862 -0.036351730987313945 0.6413757867947584 0.7663652072883846 0 0.007635511112647286 0 0 0 0 0 0 10 20 20
-0.052985921240616 -0.05608230816123035 0.10427963167882155 -0.04504352031979182 0.49851016448331026 0.8657128140200777 0 0.007635511112647286 0 0 0 0 0 0 10 20 30
-0.052565127853590556 -0.05625670376472616 0.0994699412537105 -0.05144107123981605 0.3404975630823515 0.9388371556874059 0 0.007635511112647286 0 0 0 0 0 0 10 20 40
-0.05306306812000697 -0.060555221948009504 0.10516142454576001 -0.03635173098731392 0.6413757867947582 0.7663652072883844 0 0.007635511112647286 0 0 0 0 0 0 10 30 10
-0.05265130690912912 -0.06156535237319347 0.10045497236648293 -0.04504352031979182 0.49851016448331026 0.8657128140200777 0 0.007635511112647286 0 0 0 0 0 0 10 30 20
-0.05223051352210368 -0.06173974797668927 0.0956452819413719 -0.05144107123981605 0.3404975630823516 0.9388371556874059 0 0.007635511112647286 0 0 0 0 0 0 10 30 30
-0.05181347355306366 -0.06107310983633312 0.09087849328017308 -0.05534999739999867 0.1721391155272162 0.9835163861715096 0 0.007635511112647286 0 0 0 0 0 0 10 30 40
-0.05223879334008884 -0.06629841477699912 0.09573992069405388 -0.04504352031979182 0.49851016448331015 0.8657128140200777 0 0.007635511112647286 0 0 0 0 0 0 10 40 10
-0.051817999953063396 -0.06647281038049492 0.09093023026894283 -0.05144107123981603 0.3404975630823515 0.9388371556874059 0 0.007635511112647286 0 0 0 0 0 0 10 40 20
-0.05140095998402338 -0.06580617224013877 0.08616344160774402 -0.05534999739999867 0.17213911552721625 0.9835163861715096 0 0.007635511112647286 0 0 0 0 0 0 10 40 30
-0.053575570015962984 -0.06234909093656468 0.11101934802515596 -0.025629798862992156 0.7647535303762558 0.6438129622505543 0 0.007635511112647286 0 0 0 0 0 0 20 10 10
-0.053185352137264046 -0.06416426388161826 0.10655913725960048 -0.036351730987313945 0.6413757867947584 0.7663652072883846 0 0.007635511112647286 0 0 0 0 0 0 20 10 20
-0.05277359092638619 -0.06517439430680223 0.10185268508032341 -0.04504352031979182 0.49851016448331026 0.8657128140200777 0 0.007635511112647286 0 0 0 0 0 0 20 10 30
-0.05235279753936075 -0.06534878991029804 0.09704299465521236 -0.05144107123981605 0.3404975630823515 0.9388371556874059 0 0.007635511112647286 0 0 0 0 0 0 20 10 40
-0.05285073780577716 -0.06964730809358137 0.1027344779472619 -0.03635173098731393 0.6413757867947582 0.7663652072883846 0 0.007635511112647286 0 0 0 0 0 0 20 20 10
-0.052438976594899316 -0.07065743851876534 0.09802802576798482 -0.04504352031979182 0.49851016448331026 0.8657128140200777 0 0.007635511112647286 0 0 0 0 0 0 20 20 20
-0.05201818320787387 -0.07083183412226114 0.09321833534287378 -0.05144107123981605 0.3404975630823516 0.938837155687406 0 0.007635511112647286 0 0 0 0 0 0 20 20 30
-0.05160114323883386 -0.07016519598190499 0.08845154668167494 -0.055349997399998685 0.1721391155272162 0.9835163861715098 0 0.007635511112647286 0 0 0 0 0 0 20 20 40
-0.05202646302585904 -0.075390500922571 0.09331297409555574 -0.04504352031979182 0.49851016448331026 0.8657128140200777 0 0.007635511112647286 0 0 0 0 0 0 20 30 10
-0.05160566963883359 -0.0755648965260668 0.0885032836704447 -0.05144107123981605 0.3404975630823516 0.938837155687406 0 0.007635511112647286 0 0 0 0 0 0 20 30 20
-0.051188629669793574 -0.07489825838571065 0.08373649500924589 -0.055349997399998685 0.17213911552721636 0.9835163861715097 0 0.007635511112647286 0 0 0 0 0 0 20 30 30
-0.05112779084829326 -0.07940416541562048 0.08304110409706066 -0.05144107123981603 0.34049756308235163 0.9388371556874059 0 0.007635511112647286 0 0 0 0 0 0 20 40 10
-0.050710750879253245 -0.07873752727526434 0.07827431543586186 -0.055349997399998685 0.17213911552721636 0.9835163861715098 0 0.007635511112647286 0 0 0 0 0 0 20 40 20
-0.05250402967122272 -0.07817822035399526 0.09877158583324258 -0.03635173098731392 0.6413757867947582 0.7663652072883844 0 0.007635511112647286 0 0 0 0 0 0 30 10 10
-0.05209226846034487 -0.07918835077917923 0.0940651336539655 -0.04504352031979182 0.49851016448331026 0.8657128140200777 0 0.007635511112647286 0 0 0 0 0 0 30 10 20
-0.05167147507331943 -0.07936274638267501 0.08925544322885445 -0.05144107123981605 0.3404975630823516 0.9388371556874059 0 0.007635511112647286 0 0 0 0 0 0 30 10 30
-0.05125443510427941 -0.07869610824231887 0.08448865456765564 -0.05534999739999867 0.1721391155272162 0.9835163861715096 0 0.007635511112647286 0 0 0 0 0 0 30 10 40
-0.05167975489130458 -0.08392141318298489 0.08935008198153645 -0.04504352031979182 0.49851016448331026 0.8657128140200777 0 0.007635511112647286 0 0 0 0 0 0 30 20 10
-0.05125896150427914 -0.08409580878648068 0.0845403915564254 -0.05144107123981603 0.3404975630823516 0.938837155687406 0 0.007635511112647286 0 0 0 0 0 0 30 20 20
-0.05084192153523913 -0.08342917064612454 0.07977360289522659 -0.055349997399998685 0.17213911552721636 0.9835163861715097 0 0.007635511112647286 0 0 0 0 0 0 30 20 30
-0.05078108271373881 -0.08793507767603435 0.07907821198304135 -0.05144107123981602 0.34049756308235163 0.9388371556874059 0 0.007635511112647286 0 0 0 0 0 0 30 30 10
-0.05036404274469879 -0.08726843953567821 0.07431142332184254 -0.05534999739999867 0.17213911552721636 0.9835163861715097 0 0.007635511112647286 0 0 0 0 0 0 30 30 20
-0.04983531883789064 -0.09009726066853466 0.06826808140984457 -0.055349997399998685 0.17213911552721622 0.9835163861715096 0 0.007635511112647286 0 0 0 0 0 0 30 40 10
-0.05120920348765116 -0.091631944106058 0.08397165482356028 -0.04504352031979181 0.49851016448331004 0.8657128140200777 0 0.007635511112647286 0 0 0 0 0 0 40 10 10
-0.050788410100625715 -0.0918063397095538 0.07916196439844925 -0.05144107123981602 0.34049756308235146 0.938837155687406 0 0.007635511112647286 0 0 0 0 0 0 40 10 20
-0.0503713701315857 -0.09113970156919765 0.07439517573725044 -0.05534999739999867 0.1721391155272162 0.9835163861715097 0 0.007635511112647286 0 0 0 0 0 0 40 10 30
-0.05031053131008539 -0.09564560859910749 0.0736997848250652 -0.05144107123981602 0.3404975630823515 0.9388371556874059 0 0.007635511112647286 0 0 0 0 0 0 40 20 10
-0.04989349134104537 -0.09497897045875135 0.06893299616386639 -0.05534999739999867 0.17213911552721625 0.9835163861715098 0 0.007635511112647286 0 0 0 0 0 0 40 20 20
-0.04936476743423722 -0.0978077915916078 0.0628896542518684 -0.05534999739999867 0.17213911552721622 0.9835163861715098 0 0.007635511112647286 0 0 0 0 0 0 40 30 10
-0.04973043410362248 -0.10230147760445918 0.0670692434107118 -0.05144107123981602 0.3404975630823513 0.9388371556874059 0 0.007635511112647286 0 0 0 0 0 0 50 10 10
-0.049313394134582474 -0.10163483946410302 0.06230245474951299 -0.05534999739999867 0.17213911552721609 0.9835163861715097 0 0.007635511112647286 0 0 0 0 0 0 50 10 20
-0.04878467022777432 -0.10446366059695945 0.056259112837515016 -0.05534999739999866 0.17213911552721609 0.9835163861715096 0 0.007635511112647286 0 0 0 0 0 0 50 20 10
-0.04666818118396463 -0.04398694817474461 0.12101848173841595 -0.1632821785347856 0.8570650460529546 0.48864958424388205 0 0.007635511112647286 0 0 0 0 0 10 10 10 10
-0.045867639758438175 -0.04651304146744058 0.11697885440546799 -0.1583853259986969 0.7584453197499361 0.6321983586124227 0 0.007635511112647286 0 0 0 0 0 10 10 10 20
-0.04516341984244971 -0.04830063785678733 0.11254611525848364 -0.14776446379240465 0.6369419613217253 0.7566178562010779 0 0.007635511112647286 0 0 0 0 0 10 10 10 30
-0.044576918801794096 -0.04929542213106202 0.10785495083336981 -0.13174230143963148 0.4962467888304972 0.8581276535349197 0 0.007635511112647286 0 0 0 0 0 10 10 10 40
-0.04457167644160727 -0.0524873053140699 0.11425260973396047 -0.15838532599869687 0.7584453197499362 0.6321983586124225 0 0.007635511112647286 0 0 0 0 0 10 10 20 10
-0.043867456525618805 -0.05427490170341666 0.1098198705869761 -0.14776446379240463 0.6369419613217254 0.7566178562010777 0 0.007635511112647286 0 0 0 0 0 10 10 20 20
-0.04328095548496318 -0.05526968597769135 0.10512870616186228 -0.1317423014396315 0.49624678883049733 0.8581276535349197 0 0.007635511112647286 0 0 0 0 0 10 10 20 30
-0.04282999385697687 -0.05544143212010526 0.10032165511583233 -0.11080566423586105 0.34063475389720554 0.9336434267883955 0 0.007635511112647286 0 0 0 0 0 10 10 20 40
-0.04258434466512425 -0.05967464615346664 0.10607819405576051 -0.14776446379240463 0.6369419613217253 0.7566178562010779 0 0.007635511112647286 0 0 0 0 0 10 10 30 10
-0.041997843624468637 -0.06066943042774134 0.10138702963064666 -0.13174230143963148 0.4962467888304973 0.8581276535349198 0 0.007635511112647286 0 0 0 0 0 10 10 30 20
-0.04154688199648232 -0.060841176570155246 0.0965799785846167 -0.11080566423586102 0.34063475389720543 0.9336434267883956 0 0.007635511112647286 0 0 0 0 0 10 10 30 30
-0.04124516202203409 -0.06018466616107886 0.09180310073121903 -0.08559070130808023 0.17483404945980913 0.9808706674040234 0 0.007635511112647286 0 0 0 0 0 10 10 30 40
-0.04076656992490563 -0.06533058697849974 0.09674361018774433 -0.13174230143963148 0.4962467888304973 0.8581276535349197 0 0.007635511112647286 0 0 0 0 0 10 10 40 10
-0.04031560829691932 -0.06550233312091365 0.09193655914171436 -0.11080566423586102 0.34063475389720554 0.9336434267883955 0 0.007635511112647286 0 0 0 0 0 10 10 40 20
-0.04001388832247109 -0.06484582271183727 0.08715968128831669 -0.08559070130808023 0.17483404945980913 0.9808706674040234 0 0.007635511112647286 0 0 0 0 0 10 10 40 30
-0.03987057761030688 -0.06338100348784009 0.08255811964390995 -0.056863556545462865 0.0038824460234334877 0.9983743995738343 0 0.007635511112647286 0 0 0 0 0 10 10 40 40
-0.04278652983970573 -0.061441262241283955 0.11196326673036372 -0.15838532599869692 0.7584453197499362 0.6321983586124226 0 0.007635511112647286 0 0 0 0 0 10 20 10 10
-0.042082309923717275 -0.06322885863063073 0.10753052758337936 -0.14776446379240468 0.6369419613217254 0.7566178562010779 0 0.007635511112647286 0 0 0 0 0 10 20 10 20
-0.04149580888306165 -0.06422364290490541 0.10283936315826553 -0.13174230143963153 0.4962467888304974 0.8581276535349197 0 0.007635511112647286 0 0 0 0 0 10 20 10 30
-0.04104484725507534 -0.06439538904731931 0.09803231211223556 -0.11080566423586108 0.3406347538972056 0.9336434267883957 0 0.007635511112647286 0 0 0 0 0 10 20 10 40
-0.04079919806322272 -0.06862860308068071 0.10378885105216379 -0.1477644637924047 0.6369419613217254 0.7566178562010779 0 0.007635511112647286 0 0 0 0 0 10 20 20 10
-0.0402126970225671 -0.0696233873549554 0.09909768662704994 -0.1317423014396316 0.4962467888304974 0.8581276535349198 0 0.007635511112647286 0 0 0 0 0 10 20 20 20
-0.039761735394580784 -0.06979513349736931 0.09429063558101998 -0.1108056642358611 0.34063475389720554 0.9336434267883956 0 0.007635511112647286 0 0 0 0 0 10 20 20 30
-0.03946001542013256 -0.06913862308829292 0.08951375772762231 -0.08559070130808034 0.17483404945980913 0.9808706674040236 0 0.007635511112647286 0 0 0 0 0 10 20 20 40
-0.0389814233230041 -0.07428454390571379 0.09445426718414761 -0.13174230143963156 0.49624678883049744 0.8581276535349198 0 0.007635511112647286 0 0 0 0 0 10 20 30 10
-0.03853046169501778 -0.0744562900481277 0.08964721613811766 -0.1108056642358611 0.3406347538972057 0.9336434267883955 0 0.007635511112647286 0 0 0 0 0 10 20 30 20
-0.03822874172056955 -0.07379977963905134 0.08487033828471997 -0.08559070130808033 0.1748340494598093 0.9808706674040236 0 0.007635511112647286 0 0 0 0 0 10 20 30 30
-0.03808543100840535 -0.07233496041505416 0.08026877664031325 -0.05686355654546296 0.0038824460234337097 0.9983743995738346 0 0.007635511112647286 0 0 0 0 0 10 20 30 40
-0.037388437784692995 -0.07823723181645875 0.08424314173361755 -0.1108056642358611 0.3406347538972056 0.9336434267883956 0 0.007635511112647286 0 0 0 0 0 10 20 40 10
-0.037086717810244765 -0.07758072140738238 0.07946626388021986 -0.08559070130808033 0.17483404945980924 0.9808706674040236 0 0.007635511112647286 0 0 0 0 0 10 20 40 20
-0.036943407098080555 -0.07611590218338521 0.07486470223581314 -0.05686355654546296 0.0038824460234336542 0.9983743995738346 0 0.007635511112647286 0 0 0 0 0 10 20 40 30
-0.03897674964892927 -0.07702991161500321 0.09995506948285629 -0.14776446379240465 0.6369419613217254 0.7566178562010778 0 0.007635511112647286 0 0 0 0 0 10 30 10 10
-0.03839024860827364 -0.07802469588927789 0.09526390505774245 -0.13174230143963156 0.4962467888304974 0.8581276535349197 0 0.007635511112647286 0 0 0 0 0 10 30 10 20
-0.03793928698028733 -0.07819644203169182 0.0904568540117125 -0.1108056642358611 0.34063475389720554 0.9336434267883955 0 0.007635511112647286 0 0 0 0 0 10 30 10 30
-0.037637567005839104 -0.07753993162261544 0.08567997615831481 -0.08559070130808033 0.17483404945980913 0.9808706674040234 0 0.007635511112647286 0 0 0 0 0 10 30 10 40
-0.03715897490871063 -0.0826858524400363 0.09062048561484011 -0.13174230143963156 0.4962467888304974 0.8581276535349198 0 0.007635511112647286 0 0 0 0 0 10 30 20 10
-0.03670801328072432 -0.08285759858245022 0.08581343456881016 -0.1108056642358611 0.34063475389720566 0.9336434267883955 0 0.007635511112647286 0 0 0 0 0 10 30 20 20
-0.036406293306276094 -0.08220108817337385 0.08103655671541247 -0.08559070130808033 0.17483404945980924 0.9808706674040236 0 0.007635511112647286 0 0 0 0 0 10 30 20 30
-0.036262982594111884 -0.08073626894937666 0.07643499507100575 -0.05686355654546296 0.0038824460234335987 0.9983743995738346 0 0.007635511112647286 0 0 0 0 0 10 30 20 40
-0.03556598937039954 -0.08663854035078125 0.08040936016431006 -0.1108056642358611 0.34063475389720566 0.9336434267883954 0 0.007635511112647286 0 0 0 0 0 10 30 30 10
-0.035264269395951314 -0.08598202994170488 0.0756324823109124 -0.08559070130808034 0.1748340494598093 0.9808706674040234 0 0.007635511112647286 0 0 0 0 0 10 30 30 20
-0.03512095868378709 -0.0845172107177077 0.07103092066650564 -0.05686355654546299 0.0038824460234337097 0.9983743995738344 0 0.007635511112647286 0 0 0 0 0 10 30 30 30
-0.034246195093487974 -0.08876787492522668 0.06963195301100164 -0.08559070130808032 0.17483404945980918 0.9808706674040236 0 0.007635511112647286 0 0 0 0 0 10 30 40 10
-0.03410288438132376 -0.0873030557012295 0.0650303913665949 -0.056863556545462976 0.00388244602343371 0.9983743995738346 0 0.007635511112647286 0 0 0 0 0 10 30 40 20
-0.03535459885489018 -0.09027924307291908 0.08535875299281818 -0.13174230143963153 0.4962467888304973 0.8581276535349197 0 0.007635511112647286 0 0 0 0 0 10 40 10 10
-0.034903637226903865 -0.09045098921533301 0.08055170194678823 -0.1108056642358611 0.34063475389720554 0.9336434267883955 0 0.007635511112647286 0 0 0 0 0 10 40 10 20
-0.03460191725245564 -0.08979447880625661 0.07577482409339056 -0.08559070130808036 0.17483404945980913 0.9808706674040235 0 0.007635511112647286 0 0 0 0 0 10 40 10 30
-0.034458606540291425 -0.08832965958225945 0.07117326244898384 -0.05686355654546303 0.0038824460234334877 0.9983743995738344 0 0.007635511112647286 0 0 0 0 0 10 40 10 40
-0.033761613316579085 -0.09423193098366403 0.07514762754228813 -0.1108056642358611 0.3406347538972056 0.9336434267883955 0 0.007635511112647286 0 0 0 0 0 10 40 20 10
-0.033459893342130856 -0.09357542057458769 0.07037074968889045 -0.08559070130808036 0.17483404945980924 0.9808706674040236 0 0.007635511112647286 0 0 0 0 0 10 40 20 20
-0.03331658262996663 -0.0921106013505905 0.0657691880444837 -0.056863556545463004 0.0038824460234336542 0.9983743995738346 0 0.007635511112647286 0 0 0 0 0 10 40 20 30
-0.032441819039667516 -0.09636126555810945 0.06437022038897972 -0.08559070130808034 0.17483404945980907 0.9808706674040235 0 0.007635511112647286 0 0 0 0 0 10 40 30 10
-0.0322985083275033 -0.09489644633411227 0.059768658744572975 -0.056863556545463004 0.0038824460234335423 0.9983743995738344 0 0.007635511112647286 0 0 0 0 0 10 40 30 20
-0.03143531730541131 -0.09660254804270611 0.05335399759561506 -0.056863556545463004 0.0038824460234335705 0.9983743995738346 0 0.007635511112647286 0 0 0 0 0 10 40 40 10
-0.032030134676568615 -0.10078668238316803 0.06861781895070669 -0.11080566423586102 0.3406347538972054 0.9336434267883954 0 0.007635511112647286 0 0 0 0 0 10 50 10 10
-0.031728414702120386 -0.10013017197409166 0.06384094109730902 -0.0855907013080803 0.17483404945980902 0.9808706674040234 0 0.007635511112647286 0 0 0 0 0 10 50 10 20
-0.03158510398995617 -0.09866535275009448 0.05923937945290228 -0.056863556545462976 0.003882446023433487 0.9983743995738343 0 0.007635511112647286 0 0 0 0 0 10 50 10 30
-0.030710340399657053 -0.10291601695761346 0.057840411797398274 -0.08559070130808029 0.17483404945980896 0.9808706674040234 0 0.007635511112647286 0 0 0 0 0 10 50 20 10
-0.030567029687492836 -0.10145119773361626 0.05323885015299154 -0.056863556545462976 0.0038824460234334873 0.9983743995738343 0 0.007635511112647286 0 0 0 0 0 10 50 20 20
-0.029703838665400845 -0.10315729944221008 0.04682418900403364 -0.05686355654546295 0.0038824460234334595 0.9983743995738343 0 0.007635511112647286 0 0 0 0 0 10 50 30 10
-0.03917289124772234 -0.042011859246480446 0.12167423463730162 -0.30972640191212947 0.8231939794562008 0.4758373748668428 0 0.007635511112647286 0 0 0 0 0 20 10 10 10
-0.037942108682952745 -0.044422229411929116 0.11767224852659833 -0.2880327574605792 0.729092131874865 0.6208556781107488 0 0.007635511112647286 0 0 0 0 0 20 10 10 20
-0.036933427522685115 -0.046127934033846185 0.11326614628695618 -0.2567175909294336 0.613154976662116 0.7470856927263473 0 0.007635511112647286 0 0 0 0 0 20 10 10 30
-0.03617749603355689 -0.04707714614042289 0.10858980510533132 -0.2167323978075028 0.47890520561206157 0.850691983595013 0 0.007635511112647286 0 0 0 0 0 20 10 10 40
-0.0356286160092509 -0.05012280562503701 0.11503502613857085 -0.28803275746057916 0.7290921318748651 0.6208556781107487 0 0.007635511112647286 0 0 0 0 0 20 10 20 10
-0.03461993484898327 -0.051828510246954076 0.11062892389892867 -0.25671759092943364 0.613154976662116 0.7470856927263473 0 0.007635511112647286 0 0 0 0 0 20 10 20 20
-0.03386400335985504 -0.05277772235353078 0.10595258271730382 -0.21673239780750284 0.47890520561206157 0.8506919835950129 0 0.007635511112647286 0 0 0 0 0 20 10 20 30
-0.033383790137643594 -0.052941600615233286 0.10114809085415716 -0.16929210795431263 0.3304219300843957 0.9285265259960142 0 0.007635511112647286 0 0 0 0 0 20 10 20 40
-0.032417145076937035 -0.05698088643237869 0.10696770875902299 -0.2567175909294336 0.6131549766621159 0.7470856927263472 0 0.007635511112647286 0 0 0 0 0 20 10 30 10
-0.03166121358780881 -0.0579300985389554 0.10229136757739814 -0.21673239780750284 0.4789052056120617 0.8506919835950127 0 0.007635511112647286 0 0 0 0 0 20 10 30 20
-0.031181000365597365 -0.058093976800657914 0.09748687571425146 -0.1692921079543126 0.3304219300843957 0.9285265259960139 0 0.007635511112647286 0 0 0 0 0 20 10 30 30
-0.030991096446059976 -0.057467541859430794 0.0927002152236545 -0.1158381705711072 0.17221673926986372 0.978224356744675 0 0.007635511112647286 0 0 0 0 0 20 10 30 40
-0.029636057369976404 -0.06237772235353078 0.097717403854976 -0.21673239780750278 0.47890520561206146 0.8506919835950129 0 0.007635511112647286 0 0 0 0 0 20 10 40 10
-0.029155844147764957 -0.06254160061523328 0.09291291199182931 -0.16929210795431254 0.3304219300843957 0.9285265259960142 0 0.007635511112647286 0 0 0 0 0 20 10 40 20
-0.02896594022822757 -0.06191516567400617 0.08812625150123236 -0.11583817057110714 0.17221673926986356 0.9782243567446752 0 0.007635511112647286 0 0 0 0 0 20 10 40 30
-0.029072115745863363 -0.06051745143854725 0.08350286264002478 -0.057994756496277805 0.009096617835675757 0.9982754324020139 0 0.007635511112647286 0 0 0 0 0 20 10 40 40
-0.0323184423466951 -0.05866657188358069 0.11287910571427524 -0.28803275746057916 0.7290921318748651 0.6208556781107487 0 0.007635511112647286 0 0 0 0 0 20 20 10 10
-0.03130976118642747 -0.06037227650549775 0.10847300347463308 -0.25671759092943364 0.613154976662116 0.7470856927263473 0 0.007635511112647286 0 0 0 0 0 20 20 10 20
-0.03055382969729925 -0.06132148861207446 0.10379666229300823 -0.21673239780750284 0.47890520561206157 0.8506919835950129 0 0.007635511112647286 0 0 0 0 0 20 20 10 30
-0.030073616475087803 -0.06148536687377697 0.09899217042986154 -0.16929210795431265 0.3304219300843957 0.9285265259960142 0 0.007635511112647286 0 0 0 0 0 20 20 10 40
-0.02910697141438123 -0.06552465269092238 0.10481178833472737 -0.2567175909294337 0.6131549766621158 0.7470856927263472 0 0.007635511112647286 0 0 0 0 0 20 20 20 10
-0.02835103992525301 -0.06647386479749907 0.10013544715310255 -0.21673239780750295 0.47890520561206157 0.8506919835950127 0 0.007635511112647286 0 0 0 0 0 20 20 20 20
-0.027870826703041567 -0.06663774305920159 0.09533095528995585 -0.16929210795431274 0.33042193008439563 0.928526525996014 0 0.007635511112647286 0 0 0 0 0 20 20 20 30
-0.02768092278350418 -0.06601130811797448 0.0905442947993589 -0.1158381705711073 0.1722167392698636 0.9782243567446752 0 0.007635511112647286 0 0 0 0 0 20 20 20 40
-0.026325883707420603 -0.07092148861207447 0.0955614834306804 -0.21673239780750292 0.47890520561206157 0.8506919835950129 0 0.007635511112647286 0 0 0 0 0 20 20 30 10
-0.02584567048520916 -0.07108536687377696 0.09075699156753374 -0.1692921079543127 0.3304219300843957 0.928526525996014 0 0.007635511112647286 0 0 0 0 0 20 20 30 20
-0.02565576656567177 -0.07045893193254986 0.08597033107693677 -0.1158381705711073 0.1722167392698636 0.9782243567446751 0 0.007635511112647286 0 0 0 0 0 20 20 30 30
-0.02576194208330756 -0.06906121769709092 0.08134694221572922 -0.057994756496278 0.009096617835675757 0.9982754324020138 0 0.007635511112647286 0 0 0 0 0 20 20 30 40
-0.024059681168490915 -0.07469309951850349 0.08540925683576366 -0.16929210795431268 0.3304219300843955 0.928526525996014 0 0.007635511112647286 0 0 0 0 0 20 20 40 10
-0.023869777248953526 -0.07406666457727637 0.08062259634516669 -0.1158381705711073 0.1722167392698636 0.9782243567446751 0 0.007635511112647286 0 0 0 0 0 20 20 40 20
-0.023975952766589318 -0.07266895034181743 0.07599920748395912 -0.05799475649627797 0.009096617835675702 0.9982754324020138 0 0.007635511112647286 0 0 0 0 0 20 20 40 30
-0.02585362234198803 -0.07354108799060534 0.10110319435156373 -0.2567175909294336 0.6131549766621159 0.7470856927263472 0 0.007635511112647286 0 0 0 0 0 20 30 10 10
-0.02509769085285981 -0.07449030009718205 0.09642685316993888 -0.2167323978075029 0.4789052056120616 0.8506919835950127 0 0.007635511112647286 0 0 0 0 0 20 30 10 20
-0.024617477630648362 -0.07465417835888456 0.0916223613067922 -0.16929210795431268 0.33042193008439563 0.9285265259960139 0 0.007635511112647286 0 0 0 0 0 20 30 10 30
-0.024427573711110973 -0.07402774341765746 0.08683570081619524 -0.1158381705711073 0.1722167392698636 0.978224356744675 0 0.007635511112647286 0 0 0 0 0 20 30 10 40
-0.023072534635027397 -0.07893792391175743 0.09185288944751674 -0.2167323978075029 0.47890520561206157 0.8506919835950129 0 0.007635511112647286 0 0 0 0 0 20 30 20 10
-0.022592321412815954 -0.07910180217345994 0.08704839758437007 -0.1692921079543127 0.3304219300843957 0.928526525996014 0 0.007635511112647286 0 0 0 0 0 20 30 20 20
-0.022402417493278565 -0.07847536723223283 0.0822617370937731 -0.11583817057110736 0.1722167392698636 0.9782243567446751 0 0.007635511112647286 0 0 0 0 0 20 30 20 30
-0.022508593010914357 -0.0770776529967739 0.07763834823256555 -0.05799475649627803 0.009096617835675757 0.9982754324020138 0 0.007635511112647286 0 0 0 0 0 20 30 20 40
-0.020806332096097717 -0.08270953481818646 0.08170066285259998 -0.16929210795431268 0.3304219300843955 0.928526525996014 0 0.007635511112647286 0 0 0 0 0 20 30 30 10
-0.020616428176560328 -0.08208309987695933 0.07691400236200302 -0.1158381705711073 0.1722167392698636 0.9782243567446751 0 0.007635511112647286 0 0 0 0 0 20 30 30 20
-0.02072260369419612 -0.0806853856415004 0.07229061350079545 -0.057994756496278 0.009096617835675702 0.9982754324020138 0 0.007635511112647286 0 0 0 0 0 20 30 30 30
-0.01912387214259054 -0.08474132222102775 0.07095498483462548 -0.1158381705711073 0.17221673926986358 0.9782243567446752 0 0.007635511112647286 0 0 0 0 0 20 30 40 10
-0.019230047660226332 -0.08334360798556883 0.06633159597341792 -0.05799475649627803 0.009096617835675757 0.998275432402014 0 0.007635511112647286 0 0 0 0 0 20 30 40 20
-0.0199748615180874 -0.0861834529225108 0.08670430565702436 -0.21673239780750284 0.47890520561206146 0.8506919835950129 0 0.007635511112647286 0 0 0 0 0 20 40 10 10
-0.01949464829587595 -0.08634733118421332 0.08189981379387769 -0.1692921079543127 0.3304219300843956 0.928526525996014 0 0.007635511112647286 0 0 0 0 0 20 40 10 20
-0.019304744376338563 -0.08572089624298619 0.07711315330328072 -0.11583817057110736 0.1722167392698635 0.9782243567446751 0 0.007635511112647286 0 0 0 0 0 20 40 10 30
-0.019410919893974355 -0.08432318200752727 0.07248976444207317 -0.05799475649627808 0.009096617835675702 0.9982754324020138 0 0.007635511112647286 0 0 0 0 0 20 40 10 40
-0.017708658979157705 -0.08995506382893985 0.0765520790621076 -0.16929210795431268 0.33042193008439563 0.928526525996014 0 0.007635511112647286 0 0 0 0 0 20 40 20 10
-0.01751875505962032 -0.08932862888771272 0.07176541857151064 -0.11583817057110736 0.17221673926986367 0.9782243567446752 0 0.007635511112647286 0 0 0 0 0 20 40 20 20
-0.017624930577256115 -0.08793091465225379 0.06714202971030309 -0.057994756496278055 0.009096617835675702 0.998275432402014 0 0.007635511112647286 0 0 0 0 0 20 40 20 30
-0.01602619902565053 -0.09198685123178113 0.06580640104413309 -0.1158381705711073 0.17221673926986364 0.9782243567446752 0 0.007635511112647286 0 0 0 0 0 20 40 30 10
-0.01613237454328633 -0.0905891369963222 0.06118301218292552 -0.05799475649627804 0.009096617835675813 0.998275432402014 0 0.007635511112647286 0 0 0 0 0 20 40 30 20
-0.014978602351887365 -0.09221708029893345 0.054793773592101525 -0.05799475649627803 0.009096617835675702 0.9982754324020139 0 0.007635511112647286 0 0 0 0 0 20 40 40 10
-0.0148607830478309 -0.09620953481818646 0.07011994257745147 -0.16929210795431254 0.3304219300843954 0.9285265259960139 0 0.007635511112647286 0 0 0 0 0 20 50 10 10
-0.014670879128293512 -0.09558309987695932 0.06533328208685449 -0.11583817057110725 0.17221673926986344 0.978224356744675 0 0.007635511112647286 0 0 0 0 0 20 50 10 20
-0.014777054645929304 -0.0941853856415004 0.060709893225646946 -0.05799475649627797 0.009096617835675537 0.9982754324020136 0 0.007635511112647286 0 0 0 0 0 20 50 10 30
-0.013178323094323725 -0.09824132222102774 0.059374264559476975 -0.1158381705711073 0.1722167392698635 0.9782243567446749 0 0.007635511112647286 0 0 0 0 0 20 50 20 10
-0.013284498611959513 -0.09684360798556883 0.05475087569826941 -0.05799475649627804 0.009096617835675646 0.9982754324020137 0 0.007635511112647286 0 0 0 0 0 20 50 20 20
-0.012130726420560557 -0.09847155128818007 0.04836163710744541 -0.057994756496278 0.009096617835675619 0.9982754324020137 0 0.007635511112647286 0 0 0 0 0 20 50 30 10
-0.0636885159063214 -0.04253200438427671 0.12027665832427768 -0.28134526622929357 0.8723648609452471 0.3997804197336057 0 0.007698791113081519 0 0 0 0 0 -20 10 10 10
-0.06427738295040845 -0.045083992152609775 0.11635010858598978 -0.3207441942730883 0.7928728631761566 0.5181464832679858 0 0.007698791113081519 0 0 0 0 0 -20 10 10 20
-0.06458780773009505 -0.04696730398873699 0.11203340014127851 -0.36544395086479636 0.6947872142354696 0.6194525318014887 0 0.007698791113081519 0 0 0 0 0 -20 10 10 30
-0.06461035814553294 -0.04812471641551941 0.10745769399187652 -0.4140863565195466 0.5810881969325151 0.7006204323127581 0 0.007698791113081519 0 0 0 0 0 -20 10 10 40
-0.06609777961052175 -0.05078456836571766 0.11335121774518983 -0.32074419427308837 0.7928728631761567 0.5181464832679858 0 0.007698791113081519 0 0 0 0 0 -20 10 20 10
-0.06640820439020835 -0.05266788020184488 0.10903450930047855 -0.36544395086479636 0.6947872142354696 0.6194525318014887 0 0.007698791113081519 0 0 0 0 0 -20 10 20 20
-0.06643075480564624 -0.0538252926286273 0.10445880315107656 -0.41408635651954667 0.5810881969325151 0.700620432312758 0 0.007698791113081519 0 0 0 0 0 -20 10 20 30
-0.06616474567387337 -0.05422163825515609 0.09976312981291441 -0.46519343635576466 0.455230498373565 0.7591839392176979 0 0.007698791113081519 0 0 0 0 0 -20 10 20 40
-0.06794176549928083 -0.057820256387269495 0.10504640581570703 -0.36544395086479636 0.6947872142354695 0.6194525318014887 0 0.007698791113081519 0 0 0 0 0 -20 10 30 10
-0.06796431591471871 -0.05897766881405192 0.10047069966630504 -0.4140863565195466 0.5810881969325152 0.7006204323127581 0 0.007698791113081519 0 0 0 0 0 -20 10 30 20
-0.06769830678294585 -0.05937401444058072 0.09577502632814287 -0.4651934363557646 0.455230498373565 0.7591839392176981 0 0.007698791113081519 0 0 0 0 0 -20 10 30 30
-0.06715182065682407 -0.05899725050555437 0.09110206145947525 -0.517212327614057 0.32103824104226425 0.7933636299935667 0 0.007698791113081519 0 0 0 0 0 -20 10 30 40
-0.06916444499447055 -0.0634252926286273 0.09561456004386905 -0.4140863565195466 0.5810881969325151 0.700620432312758 0 0.007698791113081519 0 0 0 0 0 -20 10 40 10
-0.06889843586269769 -0.06382163825515609 0.09091888670570687 -0.4651934363557646 0.455230498373565 0.7591839392176981 0 0.007698791113081519 0 0 0 0 0 -20 10 40 20
-0.0683519497365759 -0.06344487432012975 0.08624592183703925 -0.517212327614057 0.32103824104226414 0.7933636299935667 0 0.007698791113081519 0 0 0 0 0 -20 10 40 30
-0.06754159132051205 -0.062306448605062285 0.08173765111076631 -0.5685624626063698 0.18258878877306578 0.8021209720318974 0 0.007698791113081519 0 0 0 0 0 -20 10 40 40
-0.06898329264461794 -0.05932833462426134 0.11065324497248917 -0.3207441942730884 0.7928728631761567 0.5181464832679858 0 0.007698791113081519 0 0 0 0 0 -20 20 10 10
-0.06929371742430454 -0.061211646460388555 0.10633653652777789 -0.36544395086479636 0.6947872142354696 0.6194525318014887 0 0.007698791113081519 0 0 0 0 0 -20 20 10 20
-0.06931626783974242 -0.06236905888717098 0.10176083037837591 -0.4140863565195466 0.5810881969325151 0.7006204323127581 0 0.007698791113081519 0 0 0 0 0 -20 20 10 30
-0.06905025870796958 -0.06276540451369977 0.09706515704021373 -0.4651934363557646 0.455230498373565 0.7591839392176981 0 0.007698791113081519 0 0 0 0 0 -20 20 10 40
-0.07082727853337702 -0.06636402264581318 0.10234843304300638 -0.36544395086479636 0.6947872142354694 0.6194525318014887 0 0.007698791113081519 0 0 0 0 0 -20 20 20 10
-0.0708498289488149 -0.0675214350725956 0.0977727268936044 -0.4140863565195466 0.5810881969325151 0.7006204323127581 0 0.007698791113081519 0 0 0 0 0 -20 20 20 20
-0.07058381981704204 -0.06791778069912438 0.09307705355544223 -0.4651934363557646 0.45523049837356494 0.7591839392176981 0 0.007698791113081519 0 0 0 0 0 -20 20 20 30
-0.07003733369092024 -0.06754101676409804 0.0884040886867746 -0.517212327614057 0.3210382410422642 0.7933636299935668 0 0.007698791113081519 0 0 0 0 0 -20 20 20 40
-0.07204995802856674 -0.07196905888717099 0.0929165872711684 -0.4140863565195466 0.5810881969325151 0.7006204323127581 0 0.007698791113081519 0 0 0 0 0 -20 20 30 10
-0.07178394889679388 -0.07236540451369977 0.08822091393300623 -0.4651934363557646 0.455230498373565 0.7591839392176981 0 0.007698791113081519 0 0 0 0 0 -20 20 30 20
-0.07123746277067208 -0.07198864057867342 0.0835479490643386 -0.517212327614057 0.3210382410422642 0.7933636299935668 0 0.007698791113081519 0 0 0 0 0 -20 20 30 30
-0.07042710435460824 -0.07085021486360596 0.07903967833806566 -0.5685624626063697 0.18258878877306578 0.8021209720318975 0 0.007698791113081519 0 0 0 0 0 -20 20 30 40
-0.07261418063243144 -0.07597313715842628 0.08264428951800823 -0.4651934363557646 0.4552304983735649 0.7591839392176981 0 0.007698791113081519 0 0 0 0 0 -20 20 40 10
-0.07206769450630966 -0.07559637322339993 0.07797132464934059 -0.517212327614057 0.3210382410422642 0.7933636299935668 0 0.007698791113081519 0 0 0 0 0 -20 20 40 20
-0.07125733609024582 -0.07445794750833247 0.07346305392306765 -0.5685624626063697 0.18258878877306572 0.8021209720318976 0 0.007698791113081519 0 0 0 0 0 -20 20 40 30
-0.07020772771465089 -0.072592450502505 0.06925645886391212 -0.6176835934653833 0.044088858114366004 0.7851898779262844 0 0.007698791113081519 0 0 0 0 0 -20 20 40 40
-0.07338721133666133 -0.07438045794549612 0.09813124279813144 -0.36544395086479636 0.6947872142354695 0.6194525318014887 0 0.007698791113081519 0 0 0 0 0 -20 30 10 10
-0.07340976175209922 -0.07553787037227858 0.09355553664872945 -0.41408635651954656 0.5810881969325152 0.7006204323127581 0 0.007698791113081519 0 0 0 0 0 -20 30 10 20
-0.07314375262032635 -0.07593421599880736 0.08885986331056729 -0.46519343635576454 0.455230498373565 0.7591839392176981 0 0.007698791113081519 0 0 0 0 0 -20 30 10 30
-0.07259726649420456 -0.07555745206378102 0.08418689844189967 -0.5172123276140569 0.3210382410422642 0.7933636299935667 0 0.007698791113081519 0 0 0 0 0 -20 30 10 40
-0.07460989083185106 -0.07998549418685395 0.08869939702629344 -0.41408635651954656 0.5810881969325151 0.700620432312758 0 0.007698791113081519 0 0 0 0 0 -20 30 20 10
-0.0743438817000782 -0.08038183981338275 0.08400372368813126 -0.46519343635576454 0.455230498373565 0.7591839392176981 0 0.007698791113081519 0 0 0 0 0 -20 30 20 20
-0.0737973955739564 -0.0800050758783564 0.07933075881946364 -0.5172123276140569 0.3210382410422642 0.7933636299935667 0 0.007698791113081519 0 0 0 0 0 -20 30 20 30
-0.07298703715789258 -0.07886665016328893 0.0748224880931907 -0.5685624626063696 0.18258878877306578 0.8021209720318974 0 0.007698791113081519 0 0 0 0 0 -20 30 20 40
-0.07517411343571578 -0.08398957245810926 0.07842709927313327 -0.46519343635576454 0.4552304983735649 0.7591839392176979 0 0.007698791113081519 0 0 0 0 0 -20 30 30 10
-0.07462762730959398 -0.0836128085230829 0.07375413440446565 -0.5172123276140569 0.3210382410422642 0.7933636299935666 0 0.007698791113081519 0 0 0 0 0 -20 30 30 20
-0.07381726889353014 -0.08247438280801545 0.0692458636781927 -0.5685624626063696 0.18258878877306572 0.8021209720318973 0 0.007698791113081519 0 0 0 0 0 -20 30 30 30
-0.0727676605179352 -0.08060888580218797 0.06503926861903717 -0.6176835934653832 0.044088858114366004 0.785189877926284 0 0.007698791113081519 0 0 0 0 0 -20 30 30 40
-0.07506273552994747 -0.08627103086715132 0.06762646810784724 -0.5172123276140569 0.32103824104226414 0.7933636299935666 0 0.007698791113081519 0 0 0 0 0 -20 30 40 10
-0.07425237711388362 -0.08513260515208387 0.06311819738157429 -0.5685624626063696 0.18258878877306578 0.8021209720318973 0 0.007698791113081519 0 0 0 0 0 -20 30 40 20
-0.07320276873828868 -0.0832671081462564 0.05891160232241874 -0.6176835934653833 0.04408885811436595 0.7851898779262841 0 0.007698791113081519 0 0 0 0 0 -20 30 40 30
-0.07676646114148421 -0.08723102319760732 0.08309112650083351 -0.4140863565195466 0.5810881969325151 0.7006204323127581 0 0.007698791113081519 0 0 0 0 0 -20 40 10 10
-0.07650045200971134 -0.08762736882413612 0.07839545316267134 -0.46519343635576454 0.45523049837356494 0.7591839392176981 0 0.007698791113081519 0 0 0 0 0 -20 40 10 20
-0.07595396588358956 -0.08725060488910977 0.07372248829400371 -0.5172123276140569 0.3210382410422641 0.7933636299935667 0 0.007698791113081519 0 0 0 0 0 -20 40 10 30
-0.07514360746752573 -0.0861121791740423 0.06921421756773076 -0.5685624626063696 0.18258878877306572 0.8021209720318976 0 0.007698791113081519 0 0 0 0 0 -20 40 10 40
-0.07733068374534893 -0.09123510146886264 0.07281882874767333 -0.4651934363557645 0.455230498373565 0.7591839392176981 0 0.007698791113081519 0 0 0 0 0 -20 40 20 10
-0.07678419761922714 -0.09085833753383628 0.06814586387900573 -0.5172123276140569 0.32103824104226425 0.7933636299935668 0 0.007698791113081519 0 0 0 0 0 -20 40 20 20
-0.0759738392031633 -0.08971991181876883 0.06363759315273278 -0.5685624626063694 0.18258878877306572 0.8021209720318975 0 0.007698791113081519 0 0 0 0 0 -20 40 20 30
-0.07492423082756836 -0.08785441481294136 0.05943099809357724 -0.6176835934653832 0.04408885811436606 0.7851898779262843 0 0.007698791113081519 0 0 0 0 0 -20 40 20 40
-0.07721930583958062 -0.09351655987790469 0.06201819758238731 -0.5172123276140569 0.3210382410422642 0.7933636299935667 0 0.007698791113081519 0 0 0 0 0 -20 40 30 10
-0.07640894742351677 -0.09237813416283724 0.05750992685611436 -0.5685624626063694 0.18258878877306584 0.8021209720318975 0 0.007698791113081519 0 0 0 0 0 -20 40 30 20
-0.07535933904792183 -0.09051263715700977 0.05330333179695882 -0.6176835934653832 0.044088858114366004 0.7851898779262843 0 0.007698791113081519 0 0 0 0 0 -20 40 30 30
-0.07643571158548611 -0.09400607746544849 0.05101740471754953 -0.5685624626063696 0.18258878877306572 0.8021209720318975 0 0.007698791113081519 0 0 0 0 0 -20 40 40 10
-0.07538610320989117 -0.09214058045962101 0.046810809658393994 -0.6176835934653832 0.04408885811436603 0.7851898779262844 0 0.007698791113081519 0 0 0 0 0 -20 40 40 20
-0.07901836526374993 -0.09748957245810926 0.06598988240362269 -0.46519343635576466 0.4552304983735647 0.7591839392176979 0 0.007698791113081519 0 0 0 0 0 -20 50 10 10
-0.07847187913762814 -0.09711280852308289 0.06131691753495506 -0.517212327614057 0.321038241042264 0.7933636299935666 0 0.007698791113081519 0 0 0 0 0 -20 50 10 20
-0.07766152072156429 -0.09597438280801543 0.05680864680868211 -0.5685624626063696 0.18258878877306559 0.8021209720318973 0 0.007698791113081519 0 0 0 0 0 -20 50 10 30
-0.07661191234596935 -0.09410888580218797 0.05260205174952658 -0.6176835934653832 0.044088858114365866 0.785189877926284 0 0.007698791113081519 0 0 0 0 0 -20 50 10 40
-0.07890698735798161 -0.09977103086715132 0.055189251238336644 -0.5172123276140569 0.3210382410422641 0.7933636299935667 0 0.007698791113081519 0 0 0 0 0 -20 50 20 10
-0.07809662894191777 -0.09863260515208387 0.05068098051206371 -0.5685624626063696 0.1825887887730657 0.8021209720318974 0 0.007698791113081519 0 0 0 0 0 -20 50 20 20
-0.07704702056632283 -0.09676710814625639 0.04647438545290817 -0.6176835934653832 0.04408885811436595 0.7851898779262843 0 0.007698791113081519 0 0 0 0 0 -20 50 20 30
-0.0781233931038871 -0.1002605484546951 0.044188458373498885 -0.5685624626063696 0.18258878877306567 0.8021209720318973 0 0.007698791113081519 0 0 0 0 0 -20 50 30 10
