# .PCD v0.7 - Point Cloud Data file format
VERSION 0.7
FIELDS x y z normal_x normal_y normal_z curvature xx xy xz zx zy zz a0 a1 a2 a3
SIZE 4 4 4 4 4 4 4 4 4 4 4 4 4 4 4 4 4
TYPE F F F F F F F F F F F F F F F F F
COUNT 1 1 1 1 1 1 1 1 1 1 1 1 1 1 1 1 1
WIDTH 284
HEIGHT 1
VIEWPOINT 0 0 0 1 0 0 0
POINTS 284
DATA ascii
0.07305349934187175 -0.10368771217534967 -0.021207863579142065 0.1415034369886062 -0.4629215673096303 -0.8750316795308939 0 0.007698968635948369 0 0 0 0 0 65 0 30 1
0.07103356889916529 -0.09844752886059346 -0.016259324232490487 0.2099361506526597 -0.5911271901012757 -0.7787782085515516 0 0.007698968635948369 0 0 0 0 0 65 0 30 11
0.06860929107139793 -0.09253883087547371 -0.012355755741299696 0.27202400153931194 -0.7013558249758538 -0.6588649252325014 0 0.007698968635948369 0 0 0 0 0 65 0 30 21
0.07368204264314977 -0.11778974903514564 -0.0683377993409322 0.14937897713381978 -0.09649906924999224 -0.9840599022249554 0 0.007698968635948369 0 0 0 0 0 65 10 -10 21
0.07337755255129558 -0.1191524839094272 -0.05948766616961138 0.14937897713381978 -0.09649906924999213 -0.9840599022249554 0 0.007698968635948369 0 0 0 0 0 65 10 0 11
0.07131738814912852 -0.1161747828775351 -0.05293658221108261 0.21665131506859703 -0.25201761429844843 -0.9431592495994595 0 0.007698968635948369 0 0 0 0 0 65 10 0 21
0.07241554450963486 -0.11909978082464187 -0.05058000763235436 0.14937897713381978 -0.09649906924999212 -0.9840599022249554 0 0.007698968635948369 0 0 0 0 0 65 10 10 1
0.07035538010746781 -0.11612207979274977 -0.0440289236738256 0.21665131506859697 -0.2520176142984483 -0.9431592495994596 0 0.007698968635948369 0 0 0 0 0 65 10 10 11
0.06790227842332446 -0.11212686956798576 -0.038193834195662094 0.27737480665890774 -0.3998630856577394 -0.8735976017033554 0 0.007698968635948369 0 0 0 0 0 65 10 10 21
0.07082524864571393 -0.11763324113735177 -0.04188547842632298 0.14937897713381978 -0.09649906924999212 -0.9840599022249554 0 0.007698968635948369 0 0 0 0 0 65 10 20 -9
0.06876508424354688 -0.1146555401054597 -0.03533439446779422 0.216651315068597 -0.2520176142984483 -0.9431592495994596 0 0.007698968635948369 0 0 0 0 0 65 10 20 1
0.06631198255940353 -0.11066032988069566 -0.029499304989630715 0.2773748066589077 -0.3998630856577394 -0.8735976017033554 0 0.007698968635948369 0 0 0 0 0 65 10 20 11
0.06354047984662721 -0.10576900290406523 -0.024557506232928725 0.32970439934034956 -0.5355432734940317 -0.7774885540080739 0 0.007698968635948369 0 0 0 0 0 65 10 20 21
0.06659482089246242 -0.11181972388195824 -0.027117173463269667 0.21665131506859706 -0.25201761429844843 -0.9431592495994595 0 0.007698968635948369 0 0 0 0 0 65 10 30 -9
0.06414171920831907 -0.10782451365719423 -0.021282083985106177 0.27737480665890774 -0.3998630856577395 -0.8735976017033555 0 0.007698968635948369 0 0 0 0 0 65 10 30 1
0.06137021649554278 -0.1029331866805638 -0.016340285228404174 0.3297043993403496 -0.5355432734940317 -0.7774885540080739 0 0.007698968635948369 0 0 0 0 0 65 10 30 11
0.05836452346161317 -0.09729436344712099 -0.01244193124771527 0.3720500849193488 -0.654935603957407 -0.6577523312943112 0 0.007698968635948369 0 0 0 0 0 65 10 30 21
0.07218230644138486 -0.11847429366853632 -0.06863632875624118 0.30255589627213986 -0.026615374179726706 -0.9527599864765971 0 0.007698968635948369 0 0 0 0 0 65 20 -10 21
0.07048589823829743 -0.12047214211175428 -0.060068632536710354 0.30255589627213986 -0.026615374179726706 -0.952759986476597 0 0.007698968635948369 0 0 0 0 0 65 20 0 11
0.06742072471844729 -0.11795301326337934 -0.05372147703448141 0.3624476445927126 -0.18550158329757221 -0.9133569443902743 0 0.007698968635948369 0 0 0 0 0 65 20 0 21
0.06813197208540349 -0.12105455259590533 -0.051443410951243315 0.3025558962721398 -0.026615374179726675 -0.952759986476597 0 0.007698968635948369 0 0 0 0 0 65 20 10 1
0.06506679856555335 -0.1185354237475304 -0.04509625544901437 0.36244764459271256 -0.18550158329757213 -0.9133569443902743 0 0.007698968635948369 0 0 0 0 0 65 20 10 11
0.061727059970925584 -0.11494477405547585 -0.03944107528040058 0.4113596192808379 -0.3387364914303045 -0.8461919955549457 0 0.007698968635948369 0 0 0 0 0 65 20 10 21
0.06519205083771458 -0.12020382887314246 -0.04302273699314178 0.3025558962721398 -0.02661537417972665 -0.952759986476597 0 0.007698968635948369 0 0 0 0 0 65 20 20 -9
0.06212687731786444 -0.11768470002476755 -0.03667558149091284 0.36244764459271256 -0.1855015832975721 -0.9133569443902743 0 0.007698968635948369 0 0 0 0 0 65 20 20 1
0.05878713872323669 -0.11409405033271297 -0.031020401322299045 0.41135961928083786 -0.33873649143030443 -0.8461919955549457 0 0.007698968635948369 0 0 0 0 0 65 20 20 11
0.055274311321039826 -0.10954097987091545 -0.02622902627506448 0.44780565473627043 -0.48166413343491576 -0.7533059129538687 0 0.007698968635948369 0 0 0 0 0 65 20 20 21
0.05869028899481969 -0.11542669090491992 -0.028715313077327078 0.36244764459271267 -0.18550158329757213 -0.9133569443902743 0 0.007698968635948369 0 0 0 0 0 65 20 30 -9
0.05535055040019194 -0.11183604121286536 -0.02306013290871329 0.4113596192808379 -0.33873649143030454 -0.8461919955549458 0 0.007698968635948369 0 0 0 0 0 65 20 30 1
0.05183772299799506 -0.10728297075106784 -0.018268757861478732 0.4478056547362705 -0.48166413343491576 -0.7533059129538687 0 0.007698968635948369 0 0 0 0 0 65 20 30 11
0.04825854227126839 -0.1019058222615442 -0.014486771441880864 0.47067835661428087 -0.6099417252339724 -0.6375209932042513 0 0.007698968635948369 0 0 0 0 0 65 20 30 21
0.06369541236481545 -0.11962192312638499 -0.055237701562045466 0.5017641947994689 -0.12310738251486364 -0.856199337496958 0 0.007698968635948369 0 0 0 0 0 65 30 0 21
0.06001110178060747 -0.12080024724855541 -0.047156115982102745 0.5017641947994688 -0.12310738251486357 -0.856199337496958 0 0.007698968635948369 0 0 0 0 0 65 30 10 11
0.05582392256974136 -0.11758918815358047 -0.041847226119273606 0.539386814122466 -0.28139908526137686 -0.7936475665605778 0 0.007698968635948369 0 0 0 0 0 65 30 10 21
0.055781219159343004 -0.12052733062946751 -0.03926255992459077 0.5017641947994688 -0.1231073825148635 -0.856199337496958 0 0.007698968635948369 0 0 0 0 0 65 30 20 1
0.0515940399484769 -0.11731627153449259 -0.03395367006176163 0.539386814122466 -0.28139908526137675 -0.7936475665605778 0 0.007698968635948369 0 0 0 0 0 65 30 20 11
0.047372660213068414 -0.11308058001119795 -0.029451831295218237 0.560651469957336 -0.43112686033046377 -0.7069650627003607 0 0.007698968635948369 0 0 0 0 0 65 30 20 21
0.0511342873440453 -0.11881146570248984 -0.03179687509598492 0.501764194799469 -0.12310738251486358 -0.856199337496958 0 0.007698968635948369 0 0 0 0 0 65 30 30 -9
0.046947108133179205 -0.11560040660751489 -0.026487985233155775 0.5393868141224661 -0.28139908526137686 -0.7936475665605778 0 0.007698968635948369 0 0 0 0 0 65 30 30 1
0.04272572839777072 -0.11136471508422027 -0.021986146466612386 0.5606514699573361 -0.43112686033046377 -0.7069650627003609 0 0.007698968635948369 0 0 0 0 0 65 30 30 11
0.03859841262495899 -0.10623309047617789 -0.01842814488923583 0.5649120464969715 -0.5677413050425599 -0.5987856299326364 0 0.007698968635948369 0 0 0 0 0 65 30 30 21
0.05099479918725933 -0.12757244043753888 -0.07324656689194825 -0.08256415879925152 -0.012392649900820977 -0.9965087165965271 0 0.007698968635948369 0 0 0 0 0 75 0 -10 11
0.05092734567844329 -0.1250316262193089 -0.06620615532986118 -0.03632402661275017 -0.1799161194116111 -0.9830110861069435 0 0.007698968635948369 0 0 0 0 0 75 0 -10 21
0.051974047109635595 -0.1283267140401209 -0.06437262962922753 -0.08256415879925154 -0.012392649900821005 -0.9965087165965272 0 0.007698968635948369 0 0 0 0 0 75 0 0 1
0.05190659360081955 -0.12578589982189092 -0.05733221806714046 -0.0363240266127502 -0.17991611941161106 -0.9830110861069437 0 0.007698968635948369 0 0 0 0 0 75 0 0 11
0.05148660092897629 -0.12210826893776638 -0.050826350018469954 0.011055966344787551 -0.34196319896372335 -0.9396483259737813 0 0.007698968635948369 0 0 0 0 0 75 0 0 21
0.05255061918111879 -0.12757244043614657 -0.05546346279497941 -0.08256415879925152 -0.012392649900820977 -0.9965087165965271 0 0.007698968635948369 0 0 0 0 0 75 0 10 -9
0.052483165672302746 -0.12503162621791664 -0.04842305123289234 -0.03632402661275021 -0.17991611941161104 -0.9830110861069435 0 0.007698968635948369 0 0 0 0 0 75 0 10 1
0.05206317300045949 -0.12135399533379207 -0.04191718318422183 0.01105596634478753 -0.34196319896372324 -0.9396483259737813 0 0.007698968635948369 0 0 0 0 0 75 0 10 11
0.051303402430396425 -0.11665129073721603 -0.03614353615749867 0.05813620296278019 -0.49361017004474533 -0.867737991721071 0 0.007698968635948369 0 0 0 0 0 75 0 10 21
0.0526395430422604 -0.12279172362916185 -0.039749355353119485 -0.03632402661275023 -0.17991611941161098 -0.9830110861069438 0 0.007698968635948369 0 0 0 0 0 75 0 20 -9
0.052219550370417145 -0.11911409274503731 -0.03324348730444899 0.011055966344787513 -0.3419631989637232 -0.9396483259737816 0 0.007698968635948369 0 0 0 0 0 75 0 20 1
0.051459779800354086 -0.11441138814846125 -0.027469840277725824 0.05813620296278016 -0.49361017004474533 -0.8677379917210712 0 0.007698968635948369 0 0 0 0 0 75 0 20 11
0.050383316576380115 -0.10882649913891737 -0.022603843616250625 0.10348617407533925 -0.6302493161754507 -0.7694650424666966 0 0.007698968635948369 0 0 0 0 0 75 0 20 21
0.05195098159159387 -0.115456619478216 -0.025068808239356415 0.011055966344787537 -0.3419631989637233 -0.9396483259737815 0 0.007698968635948369 0 0 0 0 0 75 0 30 -9
0.051191211021530805 -0.11075391488163999 -0.019295161212633253 0.05813620296278017 -0.4936101700447454 -0.8677379917210711 0 0.007698968635948369 0 0 0 0 0 75 0 30 1
0.05011474779755684 -0.1051690258720961 -0.014429164551158053 0.10348617407533925 -0.6302493161754509 -0.7694650424666966 0 0.007698968635948369 0 0 0 0 0 75 0 30 11
0.04875429971001574 -0.0988716464760491 -0.010618669101176627 0.14572794375840234 -0.7477289260434018 -0.6478154520452399 0 0.007698968635948369 0 0 0 0 0 75 0 30 21
0.04930863638543835 -0.1254637251662724 -0.06620540262446947 0.12913566383016004 -0.13576690287321067 -0.9822888418148756 0 0.007698968635948369 0 0 0 0 0 75 10 -10 21
0.0487846748833948 -0.1266191423165309 -0.05733606819301418 0.12913566383016004 -0.1357669028732106 -0.9822888418148759 0 0.007698968635948369 0 0 0 0 0 75 10 0 11
0.047279317228412894 -0.12323114982396187 -0.05083352353481583 0.16854494947646276 -0.2999410298988002 -0.9389504880087519 0 0.007698968635948369 0 0 0 0 0 75 10 0 21
0.04785803753045819 -0.12626601226023304 -0.04843150419003148 0.12913566383016004 -0.13576690287321058 -0.9822888418148756 0 0.007698968635948369 0 0 0 0 0 75 10 10 1
0.04635267987547628 -0.122878019767664 -0.04192895953183314 0.16854494947646273 -0.29994102989880006 -0.9389504880087519 0 0.007698968635948369 0 0 0 0 0 75 10 10 11
0.04463538102187235 -0.11843083930925545 -0.03615824445926714 0.2028692751103474 -0.4549920186122857 -0.8670792123894847 0 0.007698968635948369 0 0 0 0 0 75 10 10 21
0.04655687973369637 -0.12441506467544702 -0.0397622712868252 0.12913566383016004 -0.13576690287321053 -0.9822888418148757 0 0.007698968635948369 0 0 0 0 0 75 10 20 -9
0.04505152207871446 -0.12102707218287802 -0.03325972662862686 0.16854494947646276 -0.29994102989880006 -0.938950488008752 0 0.007698968635948369 0 0 0 0 0 75 10 20 1
0.043334223225110526 -0.11657989172446946 -0.027489011556060865 0.2028692751103474 -0.45499201861228566 -0.8670792123894848 0 0.007698968635948369 0 0 0 0 0 75 10 20 11
0.04145716242955619 -0.11120864862806829 -0.022625466326484392 0.2310657134663752 -0.5962087231811942 -0.7688587872981455 0 0.007698968635948369 0 0 0 0 0 75 10 20 21
0.04341537885936441 -0.11773454717534286 -0.025089235080117407 0.16854494947646276 -0.29994102989880017 -0.9389504880087519 0 0.007698968635948369 0 0 0 0 0 75 10 30 -9
0.04169808000576048 -0.11328736671693433 -0.01931852000755141 0.2028692751103474 -0.45499201861228583 -0.8670792123894847 0 0.007698968635948369 0 0 0 0 0 75 10 30 1
0.03982101921020614 -0.10791612362053316 -0.014454974777974937 0.23106571346637522 -0.5962087231811943 -0.7688587872981455 0 0.007698968635948369 0 0 0 0 0 75 10 30 11
0.037841230015135716 -0.10178402038964332 -0.010646375752116046 0.2522775300331845 -0.7193003454962998 -0.6472735906492008 0 0.007698968635948369 0 0 0 0 0 75 10 30 21
0.047712700105358705 -0.12588295264563096 -0.06649551562360793 0.2921334428668008 -0.09296886764872507 -0.9518481399622282 0 0.007698968635948369 0 0 0 0 0 75 20 -10 21
0.04570756703498042 -0.12742732479987934 -0.05790080947836999 0.2921334428668008 -0.09296886764872503 -0.9518481399622282 0 0.007698968635948369 0 0 0 0 0 75 20 0 11
0.043132756429414734 -0.12432017018291781 -0.05159655517173377 0.32368887604442587 -0.2592054128867606 -0.9099659915611957 0 0.007698968635948369 0 0 0 0 0 75 20 0 21
0.043299758113709064 -0.1274631497475714 -0.049270873761604626 0.2921334428668008 -0.09296886764872501 -0.9518481399622282 0 0.007698968635948369 0 0 0 0 0 75 20 10 1
0.040724947508143386 -0.12435599513060987 -0.042966619454968394 0.3236888760444258 -0.25920541288676047 -0.9099659915611957 0 0.007698968635948369 0 0 0 0 0 75 20 10 11
0.03806415824899966 -0.12015657483874555 -0.03737083965571932 0.3454442991881189 -0.41755698987964274 -0.84042515235072 0 0.007698968635948369 0 0 0 0 0 75 20 10 21
0.040562433397207366 -0.12598933896579978 -0.040867924703107586 0.2921334428668008 -0.09296886764872496 -0.9518481399622283 0 0.007698968635948369 0 0 0 0 0 75 20 20 -9
0.03798762279164169 -0.12288218434883823 -0.03456367039647136 0.3236888760444258 -0.25920541288676047 -0.9099659915611958 0 0.007698968635948369 0 0 0 0 0 75 20 20 1
0.035326833532497964 -0.11868276405697388 -0.028967890597222292 0.34544429918811886 -0.4175569898796426 -0.8404251523507201 0 0.007698968635948369 0 0 0 0 0 75 20 20 11
0.03266091235499093 -0.11351867535076592 -0.024250610242959342 0.35673868477443416 -0.5632121660902071 -0.7453385855408491 0 0.007698968635948369 0 0 0 0 0 75 20 20 21
0.035003954506267414 -0.11994351883242281 -0.02664302735128769 0.32368887604442587 -0.2592054128867606 -0.9099659915611957 0 0.007698968635948369 0 0 0 0 0 75 20 30 -9
0.03234316524712369 -0.11574409854055849 -0.02104724755203861 0.345444299188119 -0.41755698987964274 -0.8404251523507201 0 0.007698968635948369 0 0 0 0 0 75 20 30 1
0.029677244069616658 -0.11058000983435053 -0.01632996719777567 0.3567386847744342 -0.5632121660902071 -0.745338585540849 0 0.007698968635948369 0 0 0 0 0 75 20 30 11
0.02708719363970368 -0.10460816093598203 -0.012634518465004105 0.35722885861256637 -0.6917452826943716 -0.6275954483479756 0 0.007698968635948369 0 0 0 0 0 75 20 30 21
0.04618802855449184 -0.12627657064256362 -0.06706767939060206 0.4477167054619999 -0.052822410381599634 -0.8926139058710552 0 0.007698968635948369 0 0 0 0 0 75 30 -10 21
0.04276876642045875 -0.12818589105613984 -0.05900928254502525 0.4477167054619999 -0.052822410381599634 -0.8926139058710553 0 0.007698968635948369 0 0 0 0 0 75 30 0 11
0.03917290968359838 -0.1253422406820982 -0.053092260599048605 0.4717737763465241 -0.22099407903729834 -0.853575515888809 0 0.007698968635948369 0 0 0 0 0 75 30 0 21
0.03894682843553259 -0.12858666426315973 -0.05091565612792103 0.4477167054619999 -0.052822410381599606 -0.8926139058710552 0 0.007698968635948369 0 0 0 0 0 75 30 10 1
0.035350971698672226 -0.12574301388911807 -0.0449986341819444 0.4717737763465241 -0.2209940790372982 -0.853575515888809 0 0.007698968635948369 0 0 0 0 0 75 30 10 11
0.0317893973905329 -0.12177606172488692 -0.03974447765541379 0.4815292052359349 -0.382442528251819 -0.7885856817314497 0 0.007698968635948369 0 0 0 0 0 75 30 10 21
0.034838342251391416 -0.12746671297252898 -0.043032720882400545 0.44771670546199993 -0.05282241038159958 -0.8926139058710553 0 0.007698968635948369 0 0 0 0 0 75 30 20 -9
0.03124248551453104 -0.12462306259848734 -0.037115698936423906 0.4717737763465242 -0.2209940790372982 -0.8535755158888091 0 0.007698968635948369 0 0 0 0 0 75 30 20 1
0.02768091120639172 -0.12065611043425617 -0.031861542409893306 0.48152920523593495 -0.38244252825181896 -0.7885856817314499 0 0.007698968635948369 0 0 0 0 0 75 30 20 11
0.024261835960082717 -0.11568639031397103 -0.027429896190135875 0.47668657835991274 -0.5322622285926358 -0.6996190866234064 0 0.007698968635948369 0 0 0 0 0 75 30 20 21
0.02697228540488565 -0.12201641596344912 -0.029682973860964572 0.4717737763465241 -0.22099407903729823 -0.8535755158888091 0 0.007698968635948369 0 0 0 0 0 75 30 30 -9
0.02341071109674633 -0.11804946379921795 -0.02442881733443397 0.4815292052359349 -0.38244252825181907 -0.7885856817314499 0 0.007698968635948369 0 0 0 0 0 75 30 30 1
0.01999163585043732 -0.1130797436789328 -0.01999717111467654 0.4766865783599127 -0.5322622285926359 -0.6996190866234065 0 0.007698968635948369 0 0 0 0 0 75 30 30 11
0.01681894653718216 -0.10725825803364879 -0.016522688529558432 0.457393036485598 -0.6659009842773195 -0.5893789355377669 0 0.007698968635948369 0 0 0 0 0 75 30 30 21
0.07032630441434146 -0.11757082526899633 -0.053948279637460926 0.5336865687667935 -0.04327112589978269 -0.8445745676081083 0 0.007725104509548656 0 0 0 0 0 65 0 0 21
0.07077545543636792 -0.11686310628876674 -0.04502796490600839 0.5336865687667934 -0.04327112589978264 -0.8445745676081083 0 0.007725104509548656 0 0 0 0 0 65 0 10 11
0.06933825292502686 -0.11266951064311564 -0.03901835227173766 0.5954263170717246 -0.16430109577879667 -0.7864302862513755 0 0.007725104509548656 0 0 0 0 0 65 0 10 21
0.07055344128206498 -0.1147614530325614 -0.0363211640578378 0.5336865687667934 -0.04327112589978264 -0.8445745676081086 0 0.007725104509548656 0 0 0 0 0 65 0 20 1
0.06911623877072391 -0.11056785738691033 -0.030311551423567062 0.5954263170717244 -0.16430109577879662 -0.7864302862513755 0 0.007725104509548656 0 0 0 0 0 65 0 20 11
0.06720232253253146 -0.10551549920865126 -0.02515618131235513 0.6536211741980036 -0.273529647773585 -0.705663401841142 0 0.007725104509548656 0 0 0 0 0 65 0 20 21
0.06966700773916652 -0.11132972317108229 -0.02809242883086696 0.5336865687667934 -0.04327112589978269 -0.8445745676081085 0 0.007725104509548656 0 0 0 0 0 65 0 30 -9
0.06822980522782546 -0.1071361275254312 -0.02208281619659623 0.5954263170717246 -0.16430109577879673 -0.7864302862513755 0 0.007725104509548656 0 0 0 0 0 65 0 30 1
0.066315888989633 -0.10208376934717213 -0.016927446085384306 0.6536211741980037 -0.273529647773585 -0.705663401841142 0 0.007725104509548656 0 0 0 0 0 65 0 30 11
0.06398341240099831 -0.09632616198293491 -0.012782961809317215 0.7065029188598675 -0.36763792760409986 -0.6047279752901973 0 0.007725104509548656 0 0 0 0 0 65 0 30 21
0.06327471625443824 -0.11544359102193735 -0.04006737698549715 0.7118380168911672 -0.11402004570516158 -0.6930267030605493 0 0.007725104509548656 0 0 0 0 0 65 10 10 21
0.06168442039051732 -0.11397705133464725 -0.03137284777946577 0.7118380168911672 -0.11402004570516158 -0.6930267030605493 0 0.007725104509548656 0 0 0 0 0 65 10 20 11
0.058984894725043396 -0.10928934847818847 -0.02622452352561277 0.7565099999593394 -0.2295254928339448 -0.6123811005983009 0 0.007725104509548656 0 0 0 0 0 65 10 20 21
0.05951415703943286 -0.11114123511114582 -0.023155626774941235 0.7118380168911672 -0.11402004570516164 -0.6930267030605494 0 0.007725104509548656 0 0 0 0 0 65 10 30 1
0.056814631373958965 -0.10645353225468704 -0.01800730252108822 0.7565099999593395 -0.2295254928339448 -0.6123811005983009 0 0.007725104509548656 0 0 0 0 0 65 10 30 11
0.05386152980340274 -0.10098399959352843 -0.0138683844143467 0.7927654920839821 -0.33135115901288126 -0.5115947891161456 0 0.007725104509548656 0 0 0 0 0 65 10 30 21
0.057450649206843944 -0.1180600522541444 -0.04225754259551355 0.8121030293990532 -0.07207597212219448 -0.5790454802108838 0 0.007725104509548656 0 0 0 0 0 65 20 10 21
0.05451072795915505 -0.11720932853138152 -0.03383686863741202 0.8121030293990532 -0.07207597212219442 -0.5790454802108838 0 0.007725104509548656 0 0 0 0 0 65 20 20 11
0.05103630453883029 -0.1128752011293064 -0.028845780472422804 0.8434365208671194 -0.1936675941027911 -0.5011064183695291 0 0.007725104509548656 0 0 0 0 0 65 20 20 21
0.0510741396361103 -0.11495131941153391 -0.025876600223826266 0.8121030293990532 -0.07207597212219448 -0.5790454802108839 0 0.007725104509548656 0 0 0 0 0 65 20 30 1
0.04759971621578552 -0.11061719200945878 -0.020885512058837055 0.8434365208671195 -0.1936675941027911 -0.5011064183695291 0 0.007725104509548656 0 0 0 0 0 65 20 30 11
0.04403445179637002 -0.10542698104730787 -0.016870809168231835 0.8632924570352362 -0.3029761577513875 -0.40364777433971166 0 0.007725104509548656 0 0 0 0 0 65 20 30 21
0.052043013112365005 -0.12043939448918944 -0.0455223020280038 0.8931748529268747 -0.03974332448098843 -0.4479498794813842 0 0.007725104509548656 0 0 0 0 0 65 30 10 21
0.047813130491100544 -0.12016647787010157 -0.03762874597049183 0.8931748529268747 -0.03974332448098834 -0.4479498794813842 0 0.007725104509548656 0 0 0 0 0 65 30 20 11
0.043598065864519475 -0.11616410284372981 -0.032940306586876425 0.9117595185705023 -0.1670454756880977 -0.37522038006664127 0 0.007725104509548656 0 0 0 0 0 65 30 20 21
0.04316619867580285 -0.11845061294312387 -0.03016306114188597 0.8931748529268748 -0.03974332448098843 -0.4479498794813842 0 0.007725104509548656 0 0 0 0 0 65 30 30 1
0.03895113404922178 -0.11444823791675214 -0.025474621758270574 0.9117595185705024 -0.1670454756880977 -0.3752203800666414 0 0.007725104509548656 0 0 0 0 0 65 30 30 11
0.034800769172402435 -0.1095201086010573 -0.021699008914126065 0.9159408875719527 -0.2833750838745055 -0.2841668463810519 0 0.007725104509548656 0 0 0 0 0 65 30 30 21
0.04542043821040852 -0.1271139764562569 -0.06732995381915449 0.4768856372665889 -0.010067089437646436 -0.8789076669071816 0 0.007725104509548656 0 0 0 0 0 75 0 -10 21
0.04639968613278477 -0.12786825005883892 -0.05845601655643377 0.47688563726658884 -0.010067089437646407 -0.8789076669071817 0 0.007725104509548656 0 0 0 0 0 75 0 0 11
0.04606034369165762 -0.12444984967183709 -0.05182528318721956 0.5170408612967291 -0.14771694849939235 -0.8431182569157756 0 0.007725104509548656 0 0 0 0 0 75 0 0 21
0.04697625820426797 -0.12711397645486464 -0.04954684972218564 0.47688563726658884 -0.010067089437646407 -0.8789076669071816 0 0.007725104509548656 0 0 0 0 0 75 0 10 1
0.046636915763140815 -0.12369557606786277 -0.042916116352971434 0.517040861296729 -0.1477169484993923 -0.8431182569157756 0 0.007725104509548656 0 0 0 0 0 75 0 10 11
0.04595474791041528 -0.11922612054979713 -0.036972560691201646 0.556989805307425 -0.27670841845502625 -0.7830675272343032 0 0.007725104509548656 0 0 0 0 0 75 0 10 21
0.047132635574225624 -0.12487407386610987 -0.040873153842412795 0.47688563726658884 -0.010067089437646351 -0.8789076669071818 0 0.007725104509548656 0 0 0 0 0 75 0 20 -9
0.04679329313309847 -0.12145567347910802 -0.034242420473198594 0.517040861296729 -0.14771694849939224 -0.8431182569157757 0 0.007725104509548656 0 0 0 0 0 75 0 20 1
0.04611112528037294 -0.11698621796104235 -0.028298864811428803 0.556989805307425 -0.27670841845502625 -0.7830675272343033 0 0.007725104509548656 0 0 0 0 0 75 0 20 11
0.045106859341060505 -0.11160150945617574 -0.023223078788302022 0.5955186408500527 -0.39312215876277956 -0.7005800888970005 0 0.007725104509548656 0 0 0 0 0 75 0 20 21
0.046524724354275196 -0.11779820021228671 -0.02606774140810602 0.517040861296729 -0.1477169484993923 -0.8431182569157756 0 0.007725104509548656 0 0 0 0 0 75 0 30 -9
0.04584255650154966 -0.11332874469422109 -0.020124185746336228 0.556989805307425 -0.27670841845502625 -0.7830675272343032 0 0.007725104509548656 0 0 0 0 0 75 0 30 1
0.04483829056223723 -0.10794403618935448 -0.015048399723209446 0.5955186408500527 -0.39312215876277967 -0.7005800888970005 0 0.007725104509548656 0 0 0 0 0 75 0 30 11
0.043542440648720815 -0.10180768634081323 -0.010994608528566728 0.6314566887531808 -0.49342099683159635 -0.5981622809770886 0 0.007725104509548656 0 0 0 0 0 75 0 30 21
0.04209734479462077 -0.12548416764203257 -0.05283257526556895 0.6511801068195318 -0.11407882616049661 -0.7503002293572073 0 0.007725104509548656 0 0 0 0 0 75 10 0 21
0.041170707441684155 -0.1251310375857347 -0.04392801126258626 0.6511801068195316 -0.11407882616049644 -0.7503002293572073 0 0.007725104509548656 0 0 0 0 0 75 10 10 11
0.0395013655867048 -0.1209250174047585 -0.037987478330243366 0.6804675760860895 -0.24591539656111824 -0.6902821451398271 0 0.007725104509548656 0 0 0 0 0 75 10 10 21
0.039869549644922335 -0.12328009000094872 -0.035258778359379975 0.6511801068195318 -0.11407882616049644 -0.7503002293572074 0 0.007725104509548656 0 0 0 0 0 75 10 20 1
0.03820020778994297 -0.11907406981997251 -0.029318245427037093 0.6804675760860895 -0.24591539656111824 -0.6902821451398272 0 0.007725104509548656 0 0 0 0 0 75 10 20 11
0.03635908686709885 -0.11391268281078783 -0.024245021856101102 0.7045914361355402 -0.36617322065364155 -0.607838814875891 0 0.007725104509548656 0 0 0 0 0 75 10 20 21
0.03823340642557228 -0.11998756499341356 -0.027088286810870523 0.6511801068195318 -0.11407882616049655 -0.7503002293572073 0 0.007725104509548656 0 0 0 0 0 75 10 30 -9
0.03656406457059293 -0.11578154481243738 -0.021147753878527638 0.6804675760860895 -0.24591539656111835 -0.6902821451398271 0 0.007725104509548656 0 0 0 0 0 75 10 30 1
0.034722943647748805 -0.1106201578032527 -0.016074530307591647 0.7045914361355402 -0.36617322065364166 -0.607838814875891 0 0.007725104509548656 0 0 0 0 0 75 10 30 11
0.032765985184628386 -0.10466023009834576 -0.012022763429090458 0.7228186956875436 -0.4711983253064104 -0.5054752374371307 0 0.007725104509548656 0 0 0 0 0 75 10 30 21
0.03835945561813449 -0.1264421496972773 -0.05453559204136004 0.7678447543541093 -0.08563286551961384 -0.6348869110502353 0 0.007725104509548656 0 0 0 0 0 75 20 0 21
0.03595164669686314 -0.12647797464496935 -0.045905656324594674 0.7678447543541093 -0.08563286551961376 -0.6348869110502353 0 0.007725104509548656 0 0 0 0 0 75 20 10 11
0.033309603339761455 -0.12252738545168376 -0.040145474779113205 0.786627051812267 -0.2202280894280427 -0.5768166209924491 0 0.007725104509548656 0 0 0 0 0 75 20 10 21
0.03321432198036144 -0.1250041638631977 -0.03750270726609764 0.7678447543541093 -0.08563286551961376 -0.6348869110502354 0 0.007725104509548656 0 0 0 0 0 75 20 20 1
0.030572278623259758 -0.1210535746699121 -0.03174252572061618 0.7866270518122669 -0.2202280894280426 -0.5768166209924492 0 0.007725104509548656 0 0 0 0 0 75 20 20 11
0.02790657145960969 -0.11610872364578098 -0.02682219105937316 0.7965571210322813 -0.34421319676493856 -0.4970050023639168 0 0.007725104509548656 0 0 0 0 0 75 20 20 21
0.030230653694987168 -0.12206549834678229 -0.029582064220913966 0.7678447543541093 -0.08563286551961384 -0.6348869110502353 0 0.007725104509548656 0 0 0 0 0 75 20 30 -9
0.02758861033788548 -0.1181149091534967 -0.0238218826754325 0.786627051812267 -0.2202280894280427 -0.5768166209924492 0 0.007725104509548656 0 0 0 0 0 75 20 30 1
0.024922903174235414 -0.11317005812936559 -0.01890154801418949 0.7965571210322813 -0.34421319676493856 -0.4970050023639167 0 0.007725104509548656 0 0 0 0 0 75 20 30 11
0.022314528367291572 -0.10738119207054182 -0.014970562116057327 0.7973332418857595 -0.45382096278336165 -0.39787709081003775 0 0.007725104509548656 0 0 0 0 0 75 20 30 21
0.03496025003336313 -0.12729468803758492 -0.05688258821162846 0.8634900076202837 -0.06324338269646662 -0.5003850772696593 0 0.007725104509548656 0 0 0 0 0 75 30 0 21
0.031138312048436975 -0.1276954612446048 -0.04878896179452426 0.8634900076202837 -0.06324338269646651 -0.5003850772696593 0 0.007725104509548656 0 0 0 0 0 75 30 10 11
0.02756759473227574 -0.12398453754830428 -0.04338098040771116 0.8722426305353042 -0.2004269928846332 -0.44611854732706185 0 0.007725104509548656 0 0 0 0 0 75 30 10 21
0.02702982586429579 -0.12657550995397404 -0.040906026549003764 0.8634900076202837 -0.06324338269646651 -0.5003850772696594 0 0.007725104509548656 0 0 0 0 0 75 30 20 1
0.023459108548134554 -0.12286458625767353 -0.03549804516219067 0.8722426305353043 -0.20042699288463314 -0.4461185473270621 0 0.007725104509548656 0 0 0 0 0 75 30 20 11
0.02000613852207043 -0.11812290637163424 -0.030876280415987313 0.8686213647415701 -0.32790933131022054 -0.37144628066963853 0 0.007725104509548656 0 0 0 0 0 75 30 20 21
0.0227596257546504 -0.12396886331893583 -0.03347330147354443 0.8634900076202837 -0.06324338269646651 -0.5003850772696594 0 0.007725104509548656 0 0 0 0 0 75 30 30 -9
0.019188908438489166 -0.12025793962263531 -0.02806532008673134 0.8722426305353042 -0.20042699288463325 -0.4461185473270621 0 0.007725104509548656 0 0 0 0 0 75 30 30 1
0.015735938412425036 -0.115516259736596 -0.023443555340527975 0.8686213647415701 -0.32790933131022065 -0.37144628066963864 0 0.007725104509548656 0 0 0 0 0 75 30 30 11
0.012505632423412832 -0.10988789720474942 -0.019748437218021934 0.8527362405677753 -0.44181691162934317 -0.2786371563337845 0 0.007725104509548656 0 0 0 0 0 75 30 30 21
0.08073610652242706 -0.11814988602015732 -0.0850128321029673 -0.6192011435967033 -0.10553310739404409 -0.7781084240508224 0 0.0076293365301561816 0 0 0 0 0 65 0 -10 1
0.08093012718463284 -0.11718503743586772 -0.07763295527229287 -0.5586804980879024 -0.23789590325092927 -0.79453234851656 0 0.0076293365301561816 0 0 0 0 0 65 0 -10 11
0.08056637971533488 -0.11507517001672733 -0.07050222556937165 -0.4960584478239672 -0.3699926219480098 -0.7855135190517576 0 0.0076293365301561816 0 0 0 0 0 65 0 -10 21
0.08184277549426006 -0.11885760499899463 -0.07615004273745098 -0.6192011435967033 -0.10553310739404406 -0.7781084240508225 0 0.0076293365301561816 0 0 0 0 0 65 0 0 -9
0.08203679615646584 -0.11789275641470504 -0.06877016590677655 -0.5586804980879024 -0.23789590325092924 -0.7945323485165601 0 0.0076293365301561816 0 0 0 0 0 65 0 0 1
0.08167304868716786 -0.11578288899556462 -0.06163943620385534 -0.4960584478239672 -0.36999262194800975 -0.7855135190517577 0 0.0076293365301561816 0 0 0 0 0 65 0 0 11
0.08076258536915568 -0.11259210999545959 -0.05497451724238727 -0.4332377321138808 -0.49780957153183986 -0.7513259682259558 0 0.0076293365301561816 0 0 0 0 0 65 0 0 21
0.0824859471784923 -0.11718503743447542 -0.059849851175324015 -0.5586804980879024 -0.23789590325092924 -0.7945323485165601 0 0.0076293365301561816 0 0 0 0 0 65 0 10 -9
0.08212219970919432 -0.11507517001533503 -0.05271912147240281 -0.4960584478239672 -0.36999262194800975 -0.7855135190517577 0 0.0076293365301561816 0 0 0 0 0 65 0 10 1
0.08121173639118213 -0.11188439101523 -0.046054202510934734 -0.4332377321138808 -0.49780957153183986 -0.7513259682259558 0 0.0076293365301561816 0 0 0 0 0 65 0 10 11
0.07978222119165686 -0.10770965063946643 -0.040057604480952295 -0.3721271266156782 -0.6174630986678119 -0.6930084674712607 0 0.0076293365301561816 0 0 0 0 0 65 0 10 21
0.08190018555489138 -0.11297351675912969 -0.044012320624232215 -0.4960584478239672 -0.3699926219480097 -0.7855135190517578 0 0.0076293365301561816 0 0 0 0 0 65 0 20 -9
0.0809897222368792 -0.10978273775902465 -0.037347401662764144 -0.4332377321138808 -0.49780957153183986 -0.7513259682259559 0 0.0076293365301561816 0 0 0 0 0 65 0 20 1
0.0795602070373539 -0.10560799738326111 -0.0313508036327817 -0.37212712661567826 -0.6174630986678119 -0.6930084674712607 0 0.0076293365301561816 0 0 0 0 0 65 0 20 11
0.0776550750522835 -0.10057614300563604 -0.02620473013100087 -0.314583446153964 -0.7253175914815062 -0.6123329645380245 0 0.0076293365301561816 0 0 0 0 0 65 0 20 21
0.08010328869398074 -0.10635100789754555 -0.029118666435793306 -0.4332377321138808 -0.49780957153183986 -0.7513259682259559 0 0.0076293365301561816 0 0 0 0 0 65 0 30 -9
0.07867377349445545 -0.10217626752178198 -0.023122068405810867 -0.3721271266156782 -0.617463098667812 -0.6930084674712607 0 0.0076293365301561816 0 0 0 0 0 65 0 30 1
0.07676864150938505 -0.09714441314415691 -0.017975994904030044 -0.31458344615396394 -0.7253175914815062 -0.6123329645380245 0 0.0076293365301561816 0 0 0 0 0 65 0 30 11
0.0744457792100926 -0.0914083351136933 -0.013836806769763614 -0.26235512634105984 -0.8180959457857847 -0.5117507437590996 0 0.0076293365301561816 0 0 0 0 0 65 0 30 21
0.08177620612512068 -0.11770884773732543 -0.08397638791064631 -0.4888837208143044 -0.041205842856225555 -0.8713752341005747 0 0.0076293365301561816 0 0 0 0 0 65 10 -10 1
0.08080520581668155 -0.11728476544504006 -0.07660695974733034 -0.42661022389753844 -0.1727550199197983 -0.8877834378524779 0 0.0076293365301561816 0 0 0 0 0 65 10 -10 11
0.07932336447491653 -0.11569388222683816 -0.06948625783896673 -0.3662715706447626 -0.3059116200834029 -0.8787850873802586 0 0.0076293365301561816 0 0 0 0 0 65 10 -10 21
0.08147171603326649 -0.119071582611607 -0.0751262547393255 -0.4888837208143044 -0.04120584285622553 -0.8713752341005748 0 0.0076293365301561816 0 0 0 0 0 65 10 0 -9
0.08050071572482737 -0.11864750031932166 -0.06775682657600951 -0.42661022389753844 -0.17275501991979827 -0.887783437852478 0 0.0076293365301561816 0 0 0 0 0 65 10 0 1
0.07901887438306233 -0.11705661710111973 -0.0606361246676459 -0.3662715706447626 -0.3059116200834028 -0.8787850873802586 0 0.0076293365301561816 0 0 0 0 0 65 10 0 11
0.07707121700729307 -0.11434727113856051 -0.05398050793847126 -0.30970112050223075 -0.4366297474315588 -0.8446535930096303 0 0.0076293365301561816 0 0 0 0 0 65 10 0 21
0.07953870768316665 -0.11859479723453632 -0.05884916803875249 -0.42661022389753844 -0.17275501991979827 -0.8877834378524779 0 0.0076293365301561816 0 0 0 0 0 65 10 10 -9
0.07805686634140162 -0.11700391401633439 -0.05172846613038888 -0.3662715706447626 -0.3059116200834028 -0.8787850873802586 0 0.0076293365301561816 0 0 0 0 0 65 10 10 1
0.07610920896563235 -0.11429456805377518 -0.04507284940121424 -0.3097011205022308 -0.43662974743155875 -0.8446535930096304 0 0.0076293365301561816 0 0 0 0 0 65 10 10 11
0.07375491413965939 -0.11054908145293586 -0.03908454539763998 -0.2586177379714947 -0.5609375978113567 -0.786426022925675 0 0.0076293365301561816 0 0 0 0 0 65 10 10 21
0.07646657047748069 -0.11553737432904429 -0.0430339369243575 -0.3662715706447626 -0.3059116200834028 -0.8787850873802586 0 0.0076293365301561816 0 0 0 0 0 65 10 20 -9
0.07451891310171142 -0.1128280283664851 -0.03637832019518286 -0.30970112050223075 -0.43662974743155875 -0.8446535930096304 0 0.0076293365301561816 0 0 0 0 0 65 10 20 1
0.07216461827573846 -0.10908254176564576 -0.030390016191608603 -0.25861773797149473 -0.5609375978113567 -0.786426022925675 0 0.0076293365301561816 0 0 0 0 0 65 10 20 11
0.06947522005651832 -0.10441471924158512 -0.025250976500555286 -0.21457356578131215 -0.6750581400918136 -0.7058715923808214 0 0.0076293365301561816 0 0 0 0 0 65 10 20 21
0.07234864975062696 -0.10999221214298364 -0.028161099190658317 -0.30970112050223075 -0.4366297474315588 -0.8446535930096303 0 0.0076293365301561816 0 0 0 0 0 65 10 30 -9
0.069994354924654 -0.10624672554214433 -0.022172795187084066 -0.2586177379714947 -0.5609375978113567 -0.7864260229256751 0 0.0076293365301561816 0 0 0 0 0 65 10 30 1
0.06730495670543389 -0.10157890301808369 -0.017033755496030735 -0.2145735657813121 -0.6750581400918136 -0.7058715923808214 0 0.0076293365301561816 0 0 0 0 0 65 10 30 11
0.06436217109695642 -0.09613057399616318 -0.012900127238031463 -0.178906863816255 -0.7755238793435187 -0.6054379069846665 0 0.0076293365301561816 0 0 0 0 0 65 10 30 21
0.08052007457842353 -0.11745718745662738 -0.07562350224030874 -0.2814540122509191 -0.10263113988447588 -0.9540704904148513 0 0.0076293365301561816 0 0 0 0 0 65 20 -10 11
0.07793538441458497 -0.11636951936705384 -0.0687265816428411 -0.22336762221690767 -0.23681541755260418 -0.945529151280442 0 0.0076293365301561816 0 0 0 0 0 65 20 -10 21
0.0788236663753361 -0.11945503589984537 -0.06705580602077792 -0.2814540122509191 -0.1026311398844759 -0.9540704904148513 0 0.0076293365301561816 0 0 0 0 0 65 20 0 1
0.07623897621149754 -0.1183673678102718 -0.06015888542331027 -0.22336762221690767 -0.23681541755260418 -0.9455291512804419 0 0.0076293365301561816 0 0 0 0 0 65 20 0 11
0.07326826677093594 -0.116124826786045 -0.053710858281748944 -0.1729622161628608 -0.3703465718468776 -0.9126486186193784 0 0.0076293365301561816 0 0 0 0 0 65 20 0 21
0.07646974022244214 -0.12003744638399642 -0.05843058443531088 -0.2814540122509191 -0.10263113988447588 -0.9540704904148513 0 0.0076293365301561816 0 0 0 0 0 65 20 10 -9
0.0738850500586036 -0.11894977829442285 -0.05153366383784324 -0.22336762221690773 -0.23681541755260416 -0.9455291512804419 0 0.0076293365301561816 0 0 0 0 0 65 20 10 1
0.070914340618042 -0.11670723727019605 -0.045085636696281906 -0.17296221616286087 -0.3703465718468775 -0.9126486186193784 0 0.0076293365301561816 0 0 0 0 0 65 20 10 11
0.06764787540385729 -0.11337796178555662 -0.039282423052464044 -0.13176933684536463 -0.4991673262140889 -0.8564279507782149 0 0.0076293365301561816 0 0 0 0 0 65 20 10 21
0.07094512881091469 -0.11809905457165998 -0.0431129898797417 -0.22336762221690773 -0.23681541755260416 -0.9455291512804419 0 0.0076293365301561816 0 0 0 0 0 65 20 20 -9
0.06797441937035309 -0.1158565135474332 -0.03666496273818037 -0.17296221616286087 -0.3703465718468775 -0.9126486186193784 0 0.0076293365301561816 0 0 0 0 0 65 20 20 1
0.0647079541561684 -0.11252723806279374 -0.03086174909436251 -0.13176933684536468 -0.49916732621408877 -0.8564279507782149 0 0.0076293365301561816 0 0 0 0 0 65 20 20 11
0.06124498306098246 -0.10821238646864775 -0.025879676658287727 -0.1010406090578785 -0.6193635272192375 -0.7785753843002745 0 0.0076293365301561816 0 0 0 0 0 65 20 20 21
0.06453783104730834 -0.11359850442758557 -0.028704694324594614 -0.17296221616286075 -0.3703465718468775 -0.9126486186193784 0 0.0076293365301561816 0 0 0 0 0 65 20 30 -9
0.06127136583312365 -0.11026922894294613 -0.022901480680776756 -0.13176933684536463 -0.4991673262140889 -0.856427950778215 0 0.0076293365301561816 0 0 0 0 0 65 20 30 1
0.057808394737937696 -0.10595437734880014 -0.01791940824470198 -0.10104060905787844 -0.6193635272192375 -0.7785753843002745 0 0.0076293365301561816 0 0 0 0 0 65 20 30 11
0.054254138386129816 -0.10078505422741543 -0.013909854766290116 -0.0817097096447386 -0.7272830741169944 -0.6814564300226899 0 0.0076293365301561816 0 0 0 0 0 65 20 30 21
0.08008339703824989 -0.11769706451505724 -0.07471246460992545 -0.12762236118633966 -0.02965494175543976 -0.9913794076544392 0 0.0076293365301561816 0 0 0 0 0 65 30 -10 11
0.07644461260612158 -0.1170815525447578 -0.0682462793577994 -0.07168866670049562 -0.16480346750514657 -0.9837177261448262 0 0.0076293365301561816 0 0 0 0 0 65 30 -10 21
0.07705660440384843 -0.1202908265962946 -0.06668840439591894 -0.12762236118633966 -0.029654941755439732 -0.9913794076544394 0 0.0076293365301561816 0 0 0 0 0 65 30 0 1
0.07341781997172013 -0.11967531462599512 -0.06022221914379289 -0.07168866670049562 -0.16480346750514654 -0.9837177261448263 0 0.0076293365301561816 0 0 0 0 0 65 30 0 11
0.06946928537863034 -0.11787076680905076 -0.0541737614405905 -0.027175761510898434 -0.3009740255270313 -0.953245050609191 0 0.0076293365301561816 0 0 0 0 0 65 30 0 21
0.07337229381964044 -0.121469150718465 -0.05860681881597622 -0.12762236118633966 -0.029654941755439732 -0.9913794076544393 0 0.0076293365301561816 0 0 0 0 0 65 30 10 -9
0.06973350938751215 -0.12085363874816551 -0.05214063356385018 -0.07168866670049562 -0.16480346750514652 -0.9837177261448263 0 0.0076293365301561816 0 0 0 0 0 65 30 10 1
0.06578497479442236 -0.11904909093122118 -0.04609217586064779 -0.027175761510898545 -0.30097402552703123 -0.953245050609191 0 0.0076293365301561816 0 0 0 0 0 65 30 10 11
0.061646664265927194 -0.11611033753990456 -0.04064522503301358 0.004563852282882796 -0.43402914232122597 -0.9008872778737654 0 0.0076293365301561816 0 0 0 0 0 65 30 10 21
0.06550362676624767 -0.12058072212907764 -0.044247077506338196 -0.07168866670049562 -0.16480346750514646 -0.9837177261448263 0 0.0076293365301561816 0 0 0 0 0 65 30 20 -9
0.06155509217315789 -0.11877617431213328 -0.03819861980313581 -0.027175761510898545 -0.3009740255270312 -0.953245050609191 0 0.0076293365301561816 0 0 0 0 0 65 30 20 1
0.05741678164466273 -0.11583742092081668 -0.03275166897550161 0.004563852282882796 -0.4340291423212259 -0.9008872778737654 0 0.0076293365301561816 0 0 0 0 0 65 30 20 11
0.05321443565208438 -0.11185375448984199 -0.028071727868043142 0.022565782576743538 -0.559926005493077 -0.8282352723688046 0 0.0076293365301561816 0 0 0 0 0 65 30 20 21
0.056908160357860185 -0.1170603093851556 -0.030732934974529953 -0.027175761510898323 -0.30097402552703123 -0.953245050609191 0 0.0076293365301561816 0 0 0 0 0 65 30 30 -9
0.052769849829365036 -0.11412155599383898 -0.02528598414689575 0.004563852282882907 -0.43402914232122597 -0.9008872778737654 0 0.0076293365301561816 0 0 0 0 0 65 30 30 1
0.04856750383678668 -0.11013788956286431 -0.02060604303943729 0.02256578257674365 -0.559926005493077 -0.8282352723688047 0 0.0076293365301561816 0 0 0 0 0 65 30 30 11
0.04442880853661992 -0.1052303517809042 -0.016835309294540222 0.026283049828121224 -0.6748393025619942 -0.7374965285178878 0 0.0076293365301561816 0 0 0 0 0 65 30 30 21
0.05617205282829516 -0.1272910222002004 -0.08286375589715411 -0.6291478075045485 -0.00859206214796729 -0.7772382037360409 0 0.0076293365301561816 0 0 0 0 0 75 0 -10 1
0.056539789361714166 -0.12626270469097808 -0.07549907723572498 -0.5924583815118881 -0.14966184529370127 -0.7915771666781203 0 0.0076293365301561816 0 0 0 0 0 75 0 -10 11
0.0565559123331784 -0.12401404760155305 -0.06840158188962835 -0.5536196449827515 -0.29044804839737476 -0.7804775669024003 0 0.0076293365301561816 0 0 0 0 0 75 0 -10 21
0.05715130075067143 -0.1280452958027824 -0.07398981863443338 -0.6291478075045485 -0.008592062147967263 -0.777238203736041 0 0.0076293365301561816 0 0 0 0 0 75 0 0 -9
0.05751903728409043 -0.1270169782935601 -0.06662513997300426 -0.5924583815118881 -0.14966184529370127 -0.7915771666781204 0 0.0076293365301561816 0 0 0 0 0 75 0 0 1
0.057535160255554656 -0.12476832120413506 -0.05952764462690763 -0.5536196449827515 -0.29044804839737476 -0.7804775669024004 0 0.0076293365301561816 0 0 0 0 0 75 0 0 11
0.05719917977673479 -0.12136764884229412 -0.05291298640072868 -0.5138116932732275 -0.42667295391893884 -0.7442766601313979 0 0.0076293365301561816 0 0 0 0 0 75 0 0 21
0.058095609355573626 -0.12626270468958578 -0.057715973138756135 -0.5924583815118881 -0.14966184529370127 -0.7915771666781203 0 0.0076293365301561816 0 0 0 0 0 75 0 10 -9
0.058111732327037854 -0.12401404760016077 -0.0506184777926595 -0.5536196449827515 -0.2904480483973747 -0.7804775669024003 0 0.0076293365301561816 0 0 0 0 0 75 0 10 1
0.05777575184821799 -0.1206133752383198 -0.044003819566480556 -0.5138116932732275 -0.4266729539189388 -0.7442766601313979 0 0.0076293365301561816 0 0 0 0 0 75 0 10 11
0.057097876515948644 -0.1161640153129542 -0.03807298150324319 -0.4742440708522143 -0.5541974370372488 -0.6840743925988072 0 0.0076293365301561816 0 0 0 0 0 75 0 10 21
0.05826810969699551 -0.12177414501140599 -0.041944781912886656 -0.5536196449827516 -0.29044804839737465 -0.7804775669024006 0 0.0076293365301561816 0 0 0 0 0 75 0 20 -9
0.05793212921817564 -0.11837347264956505 -0.035330123686707716 -0.5138116932732275 -0.4266729539189387 -0.7442766601313981 0 0.0076293365301561816 0 0 0 0 0 75 0 20 1
0.057254253885906305 -0.11392411272419942 -0.02939928562347035 -0.4742440708522143 -0.5541974370372488 -0.6840743925988074 0 0.0076293365301561816 0 0 0 0 0 75 0 20 11
0.056255080599137 -0.1085612567851567 -0.02433247323657716 -0.4361190199047915 -0.6691467308632573 -0.6016999797397888 0 0.0076293365301561816 0 0 0 0 0 75 0 20 21
0.05766356043935237 -0.11471599938274374 -0.027155444621615142 -0.5138116932732275 -0.4266729539189388 -0.744276660131398 0 0.0076293365301561816 0 0 0 0 0 75 0 30 -9
0.056985685107083024 -0.11026663945737816 -0.021224606558377778 -0.4742440708522143 -0.5541974370372489 -0.6840743925988073 0 0.0076293365301561816 0 0 0 0 0 75 0 30 1
0.055986511820313736 -0.10490378351833543 -0.016157794171484587 -0.4361190199047915 -0.6691467308632574 -0.6016999797397888 0 0.0076293365301561816 0 0 0 0 0 75 0 30 11
0.0546963999537569 -0.09879037922958728 -0.012108959991380546 -0.40059495081178986 -0.7680281592712102 -0.49965632640559965 0 0.0076293365301561816 0 0 0 0 0 75 0 30 21
0.05640085306787983 -0.12632377992237312 -0.07447185556364387 -0.4512337618293634 -0.10976839351933407 -0.8856291574559118 0 0.0076293365301561816 0 0 0 0 0 75 10 -10 11
0.0552259485430624 -0.1243929581175579 -0.06737800714691637 -0.41482736903467327 -0.25120368714822233 -0.8745370055231918 0 0.0076293365301561816 0 0 0 0 0 75 10 -10 21
0.05587689156583628 -0.12747919707263158 -0.06560252113218858 -0.4512337618293634 -0.10976839351933404 -0.8856291574559119 0 0.0076293365301561816 0 0 0 0 0 75 10 0 1
0.05470198704101885 -0.1255483752678164 -0.05850867271546108 -0.41482736903467327 -0.2512036871482223 -0.874537005523192 0 0.0076293365301561816 0 0 0 0 0 75 10 0 11
0.05326115600162582 -0.12244254118088295 -0.051897397544644355 -0.3816773897309852 -0.38920532625582005 -0.8383564854814476 0 0.0076293365301561816 0 0 0 0 0 75 10 0 21
0.05495025421289967 -0.12712606701633375 -0.05669795712920588 -0.4512337618293634 -0.10976839351933403 -0.8856291574559118 0 0.0076293365301561816 0 0 0 0 0 75 10 10 -9
0.05377534968808223 -0.12519524521151854 -0.049604108712478376 -0.41482736903467327 -0.2512036871482223 -0.8745370055231918 0 0.0076293365301561816 0 0 0 0 0 75 10 10 1
0.05233451864868921 -0.1220894111245851 -0.04299283354166167 -0.38167738973098525 -0.38920532625581994 -0.8383564854814476 0 0.0076293365301561816 0 0 0 0 0 75 10 10 11
0.050671540016756875 -0.11790293395263697 -0.03706501186735434 -0.35279106926474285 -0.5195802008700416 -0.7781869241239209 0 0.0076293365301561816 0 0 0 0 0 75 10 10 21
0.05247419189132041 -0.12334429762673252 -0.040934875809272096 -0.41482736903467327 -0.2512036871482222 -0.8745370055231919 0 0.0076293365301561816 0 0 0 0 0 75 10 20 -9
0.05103336085192739 -0.12023846353979911 -0.03432360063845538 -0.3816773897309852 -0.38920532625581994 -0.8383564854814477 0 0.0076293365301561816 0 0 0 0 0 75 10 20 1
0.04937038221999505 -0.11605198636785098 -0.02839577896414807 -0.35279106926474285 -0.5195802008700416 -0.778186924123921 0 0.0076293365301561816 0 0 0 0 0 75 10 20 11
0.04753578475974687 -0.11091207010129822 -0.02333152464830147 -0.32904610386612954 -0.638366936398604 -0.695856543125193 0 0.0076293365301561816 0 0 0 0 0 75 10 20 21
0.04939721763257734 -0.11694593853226394 -0.02615310908994593 -0.3816773897309852 -0.38920532625582005 -0.8383564854814476 0 0.0076293365301561816 0 0 0 0 0 75 10 30 -9
0.047734239000645 -0.11275946136031585 -0.020225287415638615 -0.35279106926474285 -0.5195802008700418 -0.7781869241239209 0 0.0076293365301561816 0 0 0 0 0 75 10 30 1
0.04589964154039682 -0.10761954509376309 -0.015161033099792016 -0.32904610386612954 -0.6383669363986041 -0.695856543125193 0 0.0076293365301561816 0 0 0 0 0 75 10 30 11
0.04394916856731132 -0.10168236348744172 -0.011114220947156816 -0.3111639722932498 -0.74195625799146 -0.5938669094507271 0 0.0076293365301561816 0 0 0 0 0 75 10 30 21
0.05609149110715789 -0.12642937427189513 -0.07348627814312594 -0.29622293673197814 -0.06682326469343843 -0.9527783769671493 0 0.0076293365301561816 0 0 0 0 0 75 20 -10 11
0.05374302018770572 -0.12480673048741607 -0.06661002405146582 -0.2622132282085231 -0.20888792656042274 -0.9421306011675422 0 0.0076293365301561816 0 0 0 0 0 75 20 -10 21
0.0540863580367796 -0.1279737464261435 -0.06489157199788799 -0.29622293673197814 -0.06682326469343845 -0.9527783769671493 0 0.0076293365301561816 0 0 0 0 0 75 20 0 1
0.051737887117327436 -0.12635110264166444 -0.05801531790622786 -0.2622132282085231 -0.2088879265604227 -0.9421306011675422 0 0.0076293365301561816 0 0 0 0 0 75 20 0 11
