# .PCD v0.7 - Point Cloud Data file format
VERSION 0.7
FIELDS x y z normal_x normal_y normal_z curvature xx xy xz zx zy zz a0 a1 a2 a3 a4
SIZE 4 4 4 4 4 4 4 4 4 4 4 4 4 4 4 4 4 4
TYPE F F F F F F F F F F F F F F F F F F
COUNT 1 1 1 1 1 1 1 1 1 1 1 1 1 1 1 1 1 1
WIDTH 279
HEIGHT 1
VIEWPOINT 0 0 0 1 0 0 0
POINTS 279
DATA ascii
-0.05018273522935584 -0.08064350092183367 0.09075855429393959 -0.7021030136121348 -0.18776607151017904 -0.6868735153838391 0 0.006791149535697621 0 0 0 0 0 10 60 -10 10 10
-0.04629403562392236 -0.07784291597812015 0.09214267708815124 -0.7518424892961271 -0.31536261869419685 -0.5790330348854907 0 0.006791149535697621 0 0 0 0 0 10 60 -10 10 20
-0.042537309293923964 -0.07462323803882967 0.09277650498786266 -0.778719063464257 -0.43339595143190307 -0.4536127588033066 0 0.006791149535697621 0 0 0 0 0 10 60 -10 10 30
-0.049812920686790975 -0.08091517421568092 0.09162615852421456 -0.6310119452115491 -0.054483266399067865 -0.7738575218683253 0 0.006791149535697621 0 0 0 0 0 10 60 -10 20 -10
-0.04591040397565657 -0.07861877662389474 0.09371852034222429 -0.702103013612135 -0.1877660715101792 -0.6868735153838392 0 0.006791149535697621 0 0 0 0 0 10 60 -10 20 0
-0.042021704370223095 -0.07581819168018122 0.09510264313643593 -0.751842489296127 -0.3153626186941969 -0.5790330348854907 0 0.006791149535697621 0 0 0 0 0 10 60 -10 20 10
-0.038264978040224704 -0.07259851374089074 0.09573647103614734 -0.7787190634642568 -0.433395951431903 -0.45361275880330637 0 0.006791149535697621 0 0 0 0 0 10 60 -10 20 20
-0.034754371214203134 -0.06905757109097299 0.09560074550135815 -0.7819161050106285 -0.5382796866358106 -0.31442351876032126 0 0.006791149535697621 0 0 0 0 0 10 60 -10 20 30
-0.05855691745952642 -0.09029262716159256 0.07127487672791147 -0.648621734349733 -0.038988136148396774 -0.7601116605066525 0 0.006791149535697621 0 0 0 0 0 10 60 0 -20 30
-0.055161876437567564 -0.09058830049227562 0.07569075665967334 -0.6486217343497327 -0.0389881361483969 -0.760111660506652 0 0.006791149535697621 0 0 0 0 0 10 60 0 -10 20
-0.05148485778457536 -0.08809583702709024 0.07795972476389453 -0.7000207738733116 -0.18939275096634792 -0.6885501198145059 0 0.006791149535697621 0 0 0 0 0 10 60 0 -10 30
-0.051412544780285147 -0.09003800608518735 0.07978384962468466 -0.6486217343497327 -0.03898813614839684 -0.7601116605066522 0 0.006791149535697621 0 0 0 0 0 10 60 0 0 10
-0.04773552612729294 -0.08754554262000197 0.08205281772890584 -0.7000207738733114 -0.18939275096634794 -0.6885501198145058 0 0.006791149535697621 0 0 0 0 0 10 60 0 0 20
-0.0441588314279278 -0.08447367589711434 0.08368129751756107 -0.7301298995490169 -0.33405747936317115 -0.5960837992559677 0 0.006791149535697621 0 0 0 0 0 10 60 0 0 30
-0.047422844032832354 -0.0886584643574247 0.08342978906440854 -0.6486217343497327 -0.03898813614839684 -0.7601116605066522 0 0.006791149535697621 0 0 0 0 0 10 60 0 10 0
-0.04374582537984015 -0.0861660008922393 0.08569875716862972 -0.7000207738733112 -0.18939275096634778 -0.6885501198145056 0 0.006791149535697621 0 0 0 0 0 10 60 0 10 10
-0.04016913068047501 -0.08309413416935167 0.08732723695728493 -0.7301298995490164 -0.33405747936317093 -0.5960837992559673 0 0.006791149535697621 0 0 0 0 0 10 60 0 10 20
-0.0368014359932823 -0.07953620130469717 0.08826574789604642 -0.7380342608291446 -0.4685867567704135 -0.48552224119099263 0 0.006791149535697621 0 0 0 0 0 10 60 0 10 30
-0.043313999233534524 -0.08649159198630393 0.08651779495390335 -0.6486217343497326 -0.03898813614839692 -0.760111660506652 0 0.006791149535697621 0 0 0 0 0 10 60 0 20 -10
-0.03963698058054232 -0.08399912852111854 0.08878676305812454 -0.7000207738733114 -0.18939275096634794 -0.6885501198145058 0 0.006791149535697621 0 0 0 0 0 10 60 0 20 0
-0.03606028588117718 -0.08092726179823091 0.09041524284677975 -0.7301298995490164 -0.33405747936317093 -0.5960837992559672 0 0.006791149535697621 0 0 0 0 0 10 60 0 20 10
-0.03269259119398447 -0.07736932893357641 0.09135375378554123 -0.7380342608291445 -0.46858675677041334 -0.48552224119099235 0 0.006791149535697621 0 0 0 0 0 10 60 0 20 20
-0.029636222217898793 -0.07343343591684665 0.09157377969444416 -0.7234936876959989 -0.5888929791691551 -0.3602248026145375 0 0.006791149535697621 0 0 0 0 0 10 60 0 20 30
-0.05163645151956007 -0.09438074607038109 0.06537384050230065 -0.6674232108338809 -0.027520011670007286 -0.7441699215012906 0 0.006791149535697621 0 0 0 0 0 10 60 10 -20 30
-0.0480670797599136 -0.09478115587172545 0.06964150720243359 -0.6674232108338809 -0.027520011670007394 -0.7441699215012902 0 0.006791149535697621 0 0 0 0 0 10 60 10 -10 20
-0.044630516764039764 -0.09214422862917539 0.07211490689730654 -0.6978240218909932 -0.19054018911844806 -0.6904607420208233 0 0.006791149535697621 0 0 0 0 0 10 60 10 -10 30
-0.044259043284672804 -0.09426613083551996 0.07368469026115292 -0.6674232108338808 -0.027520011670007394 -0.7441699215012902 0 0.006791149535697621 0 0 0 0 0 10 60 10 0 10
-0.04082248028879896 -0.0916292035929699 0.07615808995602585 -0.6978240218909931 -0.19054018911844806 -0.6904607420208232 0 0.006791149535697621 0 0 0 0 0 10 60 10 0 20
-0.037578486213691545 -0.08835745307658849 0.07806942654515285 -0.7070006892138665 -0.34778096600345615 -0.615790865965209 0 0.006791149535697621 0 0 0 0 0 10 60 10 0 30
-0.0403280473551784 -0.0928513197368745 0.07738053960716879 -0.6674232108338808 -0.027520011670007394 -0.7441699215012902 0 0.006791149535697621 0 0 0 0 0 10 60 10 10 0
-0.03689148435930456 -0.09021439249432445 0.07985393930204172 -0.6978240218909928 -0.190540189118448 -0.690460742020823 0 0.006791149535697621 0 0 0 0 0 10 60 10 10 10
-0.03364749028419714 -0.08694264197794303 0.08176527589116872 -0.707000689213866 -0.34778096600345615 -0.6157908659652087 0 0.006791149535697621 0 0 0 0 0 10 60 10 10 20
-0.030694632248288084 -0.08313547867158488 0.08305647437947211 -0.6946743844095127 -0.49446466088705265 -0.5224290997336167 0 0.006791149535697621 0 0 0 0 0 10 60 10 10 30
-0.03639353329356817 -0.09057971089509245 0.08061675872829253 -0.6674232108338808 -0.027520011670007432 -0.7441699215012902 0 0.006791149535697621 0 0 0 0 0 10 60 10 20 -10
-0.03295697029769432 -0.0879427836525424 0.08309015842316547 -0.6978240218909931 -0.19054018911844806 -0.6904607420208232 0 0.006791149535697621 0 0 0 0 0 10 60 10 20 0
-0.02971297622258691 -0.08467103313616099 0.08500149501229247 -0.7070006892138662 -0.34778096600345604 -0.6157908659652088 0 0.006791149535697621 0 0 0 0 0 10 60 10 20 10
-0.026760118186677853 -0.08086386982980284 0.08629269350059585 -0.6946743844095125 -0.49446466088705276 -0.5224290997336166 0 0.006791149535697621 0 0 0 0 0 10 60 10 20 20
-0.02418811728716998 -0.07663697246401405 0.08692452147538651 -0.6612196360120013 -0.6261343639257311 -0.41321219334966053 0 0.006791149535697621 0 0 0 0 0 10 60 10 20 30
-0.05396826303720068 -0.09304945292653602 0.06737367542639455 -0.6486217343497329 -0.038988136148396774 -0.7601116605066525 0 0.006791149535697621 0 0 0 0 0 10 70 -10 -20 30
-0.05057322201524181 -0.09334512625721907 0.07178955535815643 -0.6486217343497326 -0.0389881361483969 -0.7601116605066521 0 0.006791149535697621 0 0 0 0 0 10 70 -10 -10 20
-0.0468962033622496 -0.09085266279203369 0.07405852346237762 -0.7000207738733116 -0.18939275096634792 -0.688550119814506 0 0.006791149535697621 0 0 0 0 0 10 70 -10 -10 30
-0.046823890357959405 -0.0927948318501308 0.07588264832316775 -0.6486217343497326 -0.03898813614839684 -0.7601116605066521 0 0.006791149535697621 0 0 0 0 0 10 70 -10 0 10
-0.0431468717049672 -0.0903023683849454 0.07815161642738894 -0.7000207738733114 -0.18939275096634794 -0.6885501198145058 0 0.006791149535697621 0 0 0 0 0 10 70 -10 0 20
-0.03957017700560206 -0.08723050166205779 0.07978009621604416 -0.730129899549017 -0.33405747936317115 -0.5960837992559677 0 0.006791149535697621 0 0 0 0 0 10 70 -10 0 30
-0.042834189610506605 -0.09141529012236814 0.07952858776289162 -0.6486217343497326 -0.03898813614839684 -0.7601116605066521 0 0.006791149535697621 0 0 0 0 0 10 70 -10 10 0
-0.039157170957514406 -0.08892282665718276 0.0817975558671128 -0.7000207738733112 -0.18939275096634778 -0.6885501198145055 0 0.006791149535697621 0 0 0 0 0 10 70 -10 10 10
-0.035580476258149266 -0.08585095993429512 0.08342603565576802 -0.7301298995490164 -0.33405747936317093 -0.5960837992559672 0 0.006791149535697621 0 0 0 0 0 10 70 -10 10 20
-0.032212781570956556 -0.08229302706964062 0.08436454659452951 -0.7380342608291447 -0.4685867567704135 -0.48552224119099247 0 0.006791149535697621 0 0 0 0 0 10 70 -10 10 30
-0.038725344811208776 -0.08924841775124737 0.08261659365238644 -0.6486217343497326 -0.03898813614839692 -0.7601116605066521 0 0.006791149535697621 0 0 0 0 0 10 70 -10 20 -10
-0.03504832615821657 -0.086755954286062 0.08488556175660764 -0.7000207738733114 -0.18939275096634794 -0.6885501198145058 0 0.006791149535697621 0 0 0 0 0 10 70 -10 20 0
-0.031471631458851436 -0.08368408756317436 0.08651404154526283 -0.7301298995490164 -0.33405747936317093 -0.5960837992559672 0 0.006791149535697621 0 0 0 0 0 10 70 -10 20 10
-0.02810393677165872 -0.08012615469851986 0.08745255248402432 -0.7380342608291446 -0.46858675677041334 -0.48552224119099235 0 0.006791149535697621 0 0 0 0 0 10 70 -10 20 20
-0.025047567795573045 -0.0761902616817901 0.08767257839292726 -0.723493687695999 -0.5888929791691551 -0.3602248026145374 0 0.006791149535697621 0 0 0 0 0 10 70 -10 20 30
-0.04704779709723432 -0.09713757183532457 0.061472639200783746 -0.6674232108338813 -0.02752001167000729 -0.7441699215012908 0 0.006791149535697621 0 0 0 0 0 10 70 0 -20 30
-0.04347842533758786 -0.0975379816366689 0.06574030590091669 -0.667423210833881 -0.027520011670007435 -0.7441699215012905 0 0.006791149535697621 0 0 0 0 0 10 70 0 -10 20
-0.040041862341714016 -0.09490105439411885 0.06821370559578964 -0.6978240218909935 -0.1905401891184481 -0.6904607420208234 0 0.006791149535697621 0 0 0 0 0 10 70 0 -10 30
-0.039670388862347056 -0.09702295660046342 0.06978348895963603 -0.667423210833881 -0.027520011670007397 -0.7441699215012906 0 0.006791149535697621 0 0 0 0 0 10 70 0 0 10
-0.03623382586647322 -0.09438602935791338 0.07225688865450897 -0.6978240218909932 -0.1905401891184482 -0.6904607420208233 0 0.006791149535697621 0 0 0 0 0 10 70 0 0 20
-0.032989831791365797 -0.09111427884153196 0.07416822524363596 -0.7070006892138667 -0.34778096600345626 -0.6157908659652092 0 0.006791149535697621 0 0 0 0 0 10 70 0 0 30
-0.03573939293285265 -0.09560814550181797 0.0734793383056519 -0.667423210833881 -0.027520011670007397 -0.7441699215012906 0 0.006791149535697621 0 0 0 0 0 10 70 0 10 0
-0.03230282993697881 -0.09297121825926791 0.07595273800052485 -0.6978240218909931 -0.19054018911844808 -0.6904607420208232 0 0.006791149535697621 0 0 0 0 0 10 70 0 10 10
-0.029058835861871395 -0.0896994677428865 0.07786407458965183 -0.7070006892138665 -0.34778096600345615 -0.6157908659652088 0 0.006791149535697621 0 0 0 0 0 10 70 0 10 20
-0.026105977825962336 -0.08589230443652834 0.07915527307795522 -0.6946743844095129 -0.49446466088705293 -0.5224290997336168 0 0.006791149535697621 0 0 0 0 0 10 70 0 10 30
-0.03180487887124242 -0.09333653666003593 0.07671555742677563 -0.6674232108338809 -0.02752001167000751 -0.7441699215012906 0 0.006791149535697621 0 0 0 0 0 10 70 0 20 -10
-0.028368315875368578 -0.09069960941748587 0.07918895712164857 -0.6978240218909932 -0.1905401891184482 -0.6904607420208233 0 0.006791149535697621 0 0 0 0 0 10 70 0 20 0
-0.025124321800261164 -0.08742785890110445 0.08110029371077555 -0.7070006892138664 -0.34778096600345615 -0.6157908659652089 0 0.006791149535697621 0 0 0 0 0 10 70 0 20 10
-0.022171463764352105 -0.0836206955947463 0.08239149219907894 -0.6946743844095128 -0.49446466088705276 -0.5224290997336166 0 0.006791149535697621 0 0 0 0 0 10 70 0 20 20
-0.01959946286484423 -0.07939379822895751 0.0830233201738696 -0.6612196360120015 -0.6261343639257315 -0.41321219334966064 0 0.006791149535697621 0 0 0 0 0 10 70 0 20 30
-0.03991606152621921 -0.09961317645792304 0.05495823031952011 -0.6868451013150295 -0.02042734612302432 -0.7265166865250094 0 0.006791149535697621 0 0 0 0 0 10 70 10 -20 30
-0.03616681169684803 -0.10007772876274633 0.05906201378164885 -0.6868451013150292 -0.020427346123024406 -0.7265166865250091 0 0.006791149535697621 0 0 0 0 0 10 70 10 -10 20
-0.032978355833603604 -0.09735232929763915 0.06176145882117927 -0.695579504862553 -0.19117352163885984 -0.6925473287138745 0 0.006791149535697621 0 0 0 0 0 10 70 10 -10 30
-0.032298202373250325 -0.09958430332532689 0.06305001015452562 -0.6868451013150293 -0.02042734612302437 -0.7265166865250092 0 0.006791149535697621 0 0 0 0 0 10 70 10 0 10
-0.029109746510005897 -0.09685890386021971 0.06574945519405603 -0.6955795048625529 -0.19117352163885978 -0.6925473287138744 0 0.006791149535697621 0 0 0 0 0 10 70 10 0 20
-0.02620903983723216 -0.09346474090394409 0.06797355392893313 -0.6831576276427652 -0.3561160974179064 -0.6375554457635123 0 0.006791149535697621 0 0 0 0 0 10 70 10 0 30
-0.02842777929211282 -0.0981478926278954 0.06680104618638406 -0.6868451013150293 -0.02042734612302437 -0.7265166865250092 0 0.006791149535697621 0 0 0 0 0 10 70 10 10 0
-0.025239323428868397 -0.09542249316278821 0.06950049122591447 -0.6955795048625527 -0.19117352163885976 -0.6925473287138744 0 0.006791149535697621 0 0 0 0 0 10 70 10 10 10
-0.022338616756094658 -0.0920283302065126 0.07172458996079156 -0.6831576276427648 -0.35611609741790634 -0.637555445763512 0 0.006791149535697621 0 0 0 0 0 10 70 10 10 20
-0.01981379577821544 -0.08806853368296566 0.07340576427640437 -0.6499569021092156 -0.5102433767600886 -0.5632119382101333 0 0.006791149535697621 0 0 0 0 0 10 70 10 10 30
-0.024673143300227313 -0.0958121412826344 0.07020114854551199 -0.6868451013150293 -0.02042734612302437 -0.726516686525009 0 0.006791149535697621 0 0 0 0 0 10 70 10 20 -10
-0.021484687436982886 -0.09308674181752723 0.0729005935850424 -0.6955795048625529 -0.19117352163885978 -0.6925473287138744 0 0.006791149535697621 0 0 0 0 0 10 70 10 20 0
-0.018583980764209154 -0.0896925788612516 0.0751246923199195 -0.6831576276427648 -0.3561160974179063 -0.6375554457635119 0 0.006791149535697621 0 0 0 0 0 10 70 10 20 10
-0.016059159786329935 -0.08573278233770465 0.0768058666355323 -0.6499569021092154 -0.5102433767600884 -0.563211938210133 0 0.006791149535697621 0 0 0 0 0 10 70 10 20 20
-0.01398693991113703 -0.08132766866050065 0.07789303490101618 -0.5969861155068639 -0.6488722802747604 -0.47177569591111734 0 0.006791149535697621 0 0 0 0 0 10 70 10 20 30
-0.07440011631449973 -0.0756569116485546 0.08634949803061556 -0.3935919008800003 -0.00733809830348752 -0.9192559672606523 0 0.006791149535697621 0 0 0 0 0 20 50 -10 -20 10
-0.07097342580861075 -0.07376867995592654 0.08944359399058754 -0.5021666925117191 -0.12776682832782155 -0.855280197350699 0 0.006791149535697621 0 0 0 0 0 20 50 -10 -20 20
-0.06730031812787007 -0.07140517183794229 0.09185257010080866 -0.5954642820897064 -0.2443349419804955 -0.7653252186829728 0 0.006791149535697621 0 0 0 0 0 20 50 -10 -20 30
-0.07137763436408433 -0.07468615847959481 0.09093599592937945 -0.3935919008800004 -0.007338098303487576 -0.9192559672606523 0 0.006791149535697621 0 0 0 0 0 20 50 -10 -10 0
-0.06795094385819535 -0.07279792678696674 0.09403009188935141 -0.502166692511719 -0.12776682832782157 -0.8552801973506987 0 0.006791149535697621 0 0 0 0 0 20 50 -10 -10 10
-0.06427783617745467 -0.07043441866898249 0.09643906799957253 -0.5954642820897061 -0.2443349419804954 -0.7653252186829723 0 0.006791149535697621 0 0 0 0 0 20 50 -10 -10 20
-0.06046991684005944 -0.0676674481238142 0.09808972873993443 -0.670649869565493 -0.3535005761144845 -0.6521242677648763 0 0.006791149535697621 0 0 0 0 0 20 50 -10 -10 30
-0.0678731467624805 -0.0730792877131377 0.09496715641007336 -0.3935919008800004 -0.007338098303487576 -0.9192559672606523 0 0.006791149535697621 0 0 0 0 0 20 50 -10 0 -10
-0.06444645625659152 -0.07119105602050962 0.09806125237004534 -0.5021666925117192 -0.1277668283278216 -0.855280197350699 0 0.006791149535697621 0 0 0 0 0 20 50 -10 0 0
-0.060773348575850844 -0.06882754790252538 0.10047022848026645 -0.5954642820897063 -0.2443349419804954 -0.7653252186829723 0 0.006791149535697621 0 0 0 0 0 20 50 -10 0 10
-0.056965429238455614 -0.06606057735735707 0.10212088922062836 -0.6706498695654929 -0.35350057611448454 -0.652124267764876 0 0.006791149535697621 0 0 0 0 0 20 50 -10 0 20
-0.05313839994657242 -0.06297421738486501 0.10296308009980981 -0.7254389789093706 -0.4519467881771035 -0.5191168982076111 0 0.006791149535697621 0 0 0 0 0 20 50 -10 0 30
-0.06056644508621772 -0.06899689161167812 0.10141459066132905 -0.5021666925117191 -0.12776682832782152 -0.8552801973506988 0 0.006791149535697621 0 0 0 0 0 20 50 -10 10 -10
-0.05689333740547704 -0.06663338349369387 0.10382356677155015 -0.5954642820897063 -0.2443349419804954 -0.7653252186829723 0 0.006791149535697621 0 0 0 0 0 20 50 -10 10 0
-0.05308541806808181 -0.06386641294852557 0.10547422751191204 -0.6706498695654928 -0.3535005761144843 -0.6521242677648759 0 0.006791149535697621 0 0 0 0 0 20 50 -10 10 10
-0.04925838877619862 -0.060780052976033505 0.1063164183910935 -0.7254389789093704 -0.4519467881771032 -0.5191168982076109 0 0.006791149535697621 0 0 0 0 0 20 50 -10 10 20
-0.04552853187829107 -0.05746808106220835 0.10632454986539971 -0.758166870758552 -0.5366823398310167 -0.37034447163019835 0 0.006791149535697621 0 0 0 0 0 20 50 -10 10 30
-0.05275569484236468 -0.06391859401774959 0.10639719338631405 -0.5954642820897061 -0.2443349419804955 -0.7653252186829723 0 0.006791149535697621 0 0 0 0 0 20 50 -10 20 -10
-0.04894777550496945 -0.06115162347258129 0.10804785412667596 -0.6706498695654929 -0.35350057611448454 -0.652124267764876 0 0.006791149535697621 0 0 0 0 0 20 50 -10 20 0
-0.04512074621308625 -0.058065263500089226 0.10889004500585739 -0.7254389789093703 -0.45194678817710326 -0.5191168982076108 0 0.006791149535697621 0 0 0 0 0 20 50 -10 20 10
-0.0413908893151787 -0.05475329158626406 0.1088981764801636 -0.7581668707585518 -0.5366823398310168 -0.37034447163019807 0 0.006791149535697621 0 0 0 0 0 20 50 -10 20 20
-0.03787153462569106 -0.05131634032176873 0.10807200147886249 -0.7678391246803127 -0.6051325842174785 -0.2103273629317122 0 0.006791149535697621 0 0 0 0 0 20 50 -10 20 30
-0.06412343709490893 -0.08048323082565897 0.08604979706866563 -0.540137917305865 -0.08999630430690453 -0.8367506563899089 0 0.006791149535697621 0 0 0 0 0 20 50 0 -20 20
-0.060586812350050534 -0.07798457143620567 0.0885256894789415 -0.6136505026126091 -0.22615637988503054 -0.7564960792693853 0 0.006791149535697621 0 0 0 0 0 20 50 0 -20 30
-0.06093209496144345 -0.0796796902704387 0.0905535044075457 -0.540137917305865 -0.08999630430690445 -0.8367506563899086 0 0.006791149535697621 0 0 0 0 0 20 50 0 -10 10
-0.05739547021658505 -0.07718103088098537 0.09302939681782156 -0.6136505026126088 -0.22615637988503048 -0.756496079269385 0 0.006791149535697621 0 0 0 0 0 20 50 0 -10 20
-0.053820460960424 -0.07418342275894142 0.09479425118085795 -0.6684967927871428 -0.3554628607357311 -0.6532672945588471 0 0.006791149535697621 0 0 0 0 0 20 50 0 -10 30
-0.057370744717956355 -0.07812912733689809 0.09455678566962837 -0.5401379173058651 -0.08999630430690454 -0.8367506563899089 0 0.006791149535697621 0 0 0 0 0 20 50 0 0 0
-0.05383411997309796 -0.07563046794744475 0.09703267807990423 -0.6136505026126089 -0.22615637988503043 -0.756496079269385 0 0.006791149535697621 0 0 0 0 0 20 50 0 0 10
-0.0502591107169369 -0.07263285982540081 0.09879753244294061 -0.6684967927871427 -0.3554628607357311 -0.6532672945588469 0 0.006791149535697621 0 0 0 0 0 20 50 0 0 20
-0.046754341796679665 -0.06922738377669165 0.09979772455197604 -0.7030103110560753 -0.4739868348705944 -0.530200856645439 0 0.006791149535697621 0 0 0 0 0 20 50 0 0 30
-0.05354759618946582 -0.07587865509515007 0.09793800317952332 -0.540137917305865 -0.08999630430690445 -0.8367506563899084 0 0.006791149535697621 0 0 0 0 0 20 50 0 10 -10
-0.05001097144460742 -0.07337999570569674 0.10041389558979918 -0.6136505026126089 -0.22615637988503043 -0.756496079269385 0 0.006791149535697621 0 0 0 0 0 20 50 0 10 0
-0.04643596218844637 -0.0703823875836528 0.10217874995283556 -0.6684967927871426 -0.35546286073573097 -0.6532672945588468 0 0.006791149535697621 0 0 0 0 0 20 50 0 10 10
-0.04293119326818913 -0.06697691153494362 0.10317894206187098 -0.703010311056075 -0.4739868348705943 -0.5302008566454388 0 0.006791149535697621 0 0 0 0 0 20 50 0 10 20
-0.03960315531397909 -0.06326704122605524 0.10338408158579404 -0.7161423816314877 -0.5781270113115572 -0.3910360769705373 0 0.006791149535697621 0 0 0 0 0 20 50 0 10 30
-0.04604218906454513 -0.07049799361601296 0.10307031276444689 -0.6136505026126088 -0.22615637988503048 -0.7564960792693849 0 0.006791149535697621 0 0 0 0 0 20 50 0 20 -10
-0.042467179808384076 -0.06750038549396901 0.10483516712748327 -0.6684967927871427 -0.3554628607357311 -0.6532672945588469 0 0.006791149535697621 0 0 0 0 0 20 50 0 20 0
-0.03896241088812684 -0.06409490944525985 0.10583535923651868 -0.7030103110560751 -0.47398683487059423 -0.5302008566454388 0 0.006791149535697621 0 0 0 0 0 20 50 0 20 10
-0.03563437293391679 -0.06038503913637145 0.10604049876044173 -0.7161423816314876 -0.578127011311557 -0.39103607697053716 0 0.006791149535697621 0 0 0 0 0 20 50 0 20 20
-0.03258418669492415 -0.056483497099354456 0.10544435263862363 -0.7074939931940948 -0.6647191434949329 -0.24000140694378763 0 0.006791149535697621 0 0 0 0 0 20 50 0 20 30
-0.056804333052016924 -0.0859138159794372 0.08152598703682308 -0.5807898512381886 -0.059318815592851556 -0.8118893965835159 0 0.006791149535697621 0 0 0 0 0 20 50 10 -20 20
-0.05341373765412999 -0.08330552734201166 0.08409147915129436 -0.6331335538939235 -0.21137109868660803 -0.7446234800508429 0 0.006791149535697621 0 0 0 0 0 20 50 10 -20 30
-0.05343231967125682 -0.08524591153697023 0.08591883932738621 -0.5807898512381886 -0.05931881559285154 -0.8118893965835157 0 0.006791149535697621 0 0 0 0 0 20 50 10 -10 10
-0.050041724273369885 -0.08263762289954467 0.0884843314418575 -0.6331335538939232 -0.21137109868660803 -0.7446234800508427 0 0.006791149535697621 0 0 0 0 0 20 50 10 -10 20
-0.046715916185441554 -0.07945293089858362 0.09040208898101482 -0.6662178979060289 -0.3570150202071309 -0.6547472438472232 0 0.006791149535697621 0 0 0 0 0 20 50 10 -10 30
-0.049810129481679705 -0.08374102324126678 0.08988479082469224 -0.5807898512381887 -0.05931881559285158 -0.8118893965835159 0 0.006791149535697621 0 0 0 0 0 20 50 10 0 0
-0.04641953408379277 -0.08113273460384123 0.09245028293916352 -0.6331335538939232 -0.21137109868660797 -0.7446234800508427 0 0.006791149535697621 0 0 0 0 0 20 50 10 0 10
-0.04309372599586444 -0.07794804260288016 0.09436804047832084 -0.6662178979060288 -0.3570150202071309 -0.6547472438472229 0 0.006791149535697621 0 0 0 0 0 20 50 10 0 20
-0.039933758213706316 -0.07428371249330089 0.09557979334976904 -0.6790376322231831 -0.4918252632983994 -0.5449915319301339 0 0.006791149535697621 0 0 0 0 0 20 50 10 0 30
-0.04604782089927919 -0.0814448763616816 0.09330333809936384 -0.5807898512381886 -0.05931881559285158 -0.8118893965835157 0 0.006791149535697621 0 0 0 0 0 20 50 10 10 -10
-0.042657225501392254 -0.07883658772425604 0.09586883021383512 -0.6331335538939232 -0.21137109868660797 -0.7446234800508427 0 0.006791149535697621 0 0 0 0 0 20 50 10 10 0
-0.03933141741346392 -0.07565189572329498 0.09778658775299243 -0.6662178979060287 -0.35701502020713066 -0.6547472438472229 0 0.006791149535697621 0 0 0 0 0 20 50 10 10 10
-0.03617144963130581 -0.07198756561371569 0.09899834062444063 -0.6790376322231829 -0.4918252632983991 -0.5449915319301336 0 0.006791149535697621 0 0 0 0 0 20 50 10 10 20
-0.033273336176957914 -0.06795493621165725 0.0994672703303573 -0.6712032357052579 -0.6117056869413595 -0.4186912160671058 0 0.006791149535697621 0 0 0 0 0 20 50 10 10 30
-0.038869114368624585 -0.07581894952181895 0.09863610243679977 -0.6331335538939232 -0.211371098686608 -0.7446234800508424 0 0.006791149535697621 0 0 0 0 0 20 50 10 20 -10
-0.035543306280696255 -0.07263425752085789 0.10055385997595709 -0.6662178979060288 -0.3570150202071309 -0.6547472438472229 0 0.006791149535697621 0 0 0 0 0 20 50 10 20 0
-0.03238333849853814 -0.0689699274112786 0.10176561284740526 -0.6790376322231828 -0.49182526329839915 -0.5449915319301336 0 0.006791149535697621 0 0 0 0 0 20 50 10 20 10
-0.029485225044190246 -0.06493729800922014 0.10223454255332193 -0.6712032357052576 -0.6117056869413594 -0.4186912160671056 0 0.006791149535697621 0 0 0 0 0 20 50 10 20 20
-0.026937023628446778 -0.06065889871845515 0.10194640090188266 -0.6429527525260544 -0.7130137851260419 -0.2796838674445933 0 0.006791149535697621 0 0 0 0 0 20 50 10 20 30
-0.0593678906612604 -0.0840533829220029 0.08313192088432766 -0.5401379173058648 -0.08999630430690456 -0.8367506563899088 0 0.006791149535697621 0 0 0 0 0 20 60 -10 -20 20
-0.055831265916402 -0.08155472353254958 0.08560781329460354 -0.6136505026126089 -0.22615637988503048 -0.7564960792693851 0 0.006791149535697621 0 0 0 0 0 20 60 -10 -20 30
-0.05617654852779491 -0.08324984236678262 0.08763562822320772 -0.5401379173058649 -0.08999630430690453 -0.8367506563899085 0 0.006791149535697621 0 0 0 0 0 20 60 -10 -10 10
-0.05263992378293652 -0.0807511829773293 0.0901115206334836 -0.6136505026126087 -0.22615637988503043 -0.7564960792693849 0 0.006791149535697621 0 0 0 0 0 20 60 -10 -10 20
-0.049064914526775465 -0.07775357485528536 0.09187637499651999 -0.6684967927871427 -0.3554628607357311 -0.6532672945588469 0 0.006791149535697621 0 0 0 0 0 20 60 -10 -10 30
-0.05261519828430783 -0.08169927943324201 0.09163890948529041 -0.5401379173058649 -0.08999630430690456 -0.8367506563899088 0 0.006791149535697621 0 0 0 0 0 20 60 -10 0 0
-0.04907857353944943 -0.07920062004378868 0.09411480189556629 -0.6136505026126087 -0.2261563798850304 -0.7564960792693849 0 0.006791149535697621 0 0 0 0 0 20 60 -10 0 10
-0.045503564283288375 -0.07620301192174472 0.09587965625860265 -0.6684967927871425 -0.355462860735731 -0.6532672945588468 0 0.006791149535697621 0 0 0 0 0 20 60 -10 0 20
-0.04199879536303114 -0.07279753587303556 0.09687984836763808 -0.7030103110560751 -0.47398683487059434 -0.5302008566454389 0 0.006791149535697621 0 0 0 0 0 20 60 -10 0 30
-0.04879204975581728 -0.079448807191494 0.09502012699518536 -0.5401379173058648 -0.08999630430690447 -0.8367506563899085 0 0.006791149535697621 0 0 0 0 0 20 60 -10 10 -10
-0.04525542501095889 -0.07695014780204068 0.09749601940546124 -0.6136505026126087 -0.2261563798850304 -0.7564960792693849 0 0.006791149535697621 0 0 0 0 0 20 60 -10 10 0
-0.041680415754797834 -0.07395253967999672 0.0992608737684976 -0.6684967927871424 -0.3554628607357308 -0.6532672945588467 0 0.006791149535697621 0 0 0 0 0 20 60 -10 10 10
-0.0381756468345406 -0.07054706363128756 0.10026106587753303 -0.7030103110560749 -0.4739868348705942 -0.5302008566454387 0 0.006791149535697621 0 0 0 0 0 20 60 -10 10 20
-0.03484760888033055 -0.06683719332239918 0.10046620540145608 -0.7161423816314877 -0.5781270113115571 -0.39103607697053716 0 0.006791149535697621 0 0 0 0 0 20 60 -10 10 30
-0.041286642630896604 -0.07406814571235688 0.10015243658010893 -0.6136505026126086 -0.22615637988503043 -0.7564960792693849 0 0.006791149535697621 0 0 0 0 0 20 60 -10 20 -10
-0.03771163337473555 -0.07107053759031293 0.1019172909431453 -0.6684967927871425 -0.355462860735731 -0.6532672945588468 0 0.006791149535697621 0 0 0 0 0 20 60 -10 20 0
-0.03420686445447831 -0.06766506154160376 0.10291748305218072 -0.7030103110560749 -0.47398683487059423 -0.5302008566454386 0 0.006791149535697621 0 0 0 0 0 20 60 -10 20 10
-0.030878826500268262 -0.06395519123271537 0.10312262257610377 -0.7161423816314875 -0.5781270113115569 -0.391036076970537 0 0.006791149535697621 0 0 0 0 0 20 60 -10 20 20
-0.027828640261275614 -0.06005364919569838 0.10252647645428567 -0.7074939931940947 -0.6647191434949329 -0.2400014069437874 0 0.006791149535697621 0 0 0 0 0 20 60 -10 20 30
-0.05204878661836839 -0.08948396807578114 0.07860811085248513 -0.5807898512381887 -0.059318815592851654 -0.8118893965835161 0 0.006791149535697621 0 0 0 0 0 20 60 0 -20 20
-0.04865819122048146 -0.0868756794383556 0.08117360296695643 -0.6331335538939237 -0.21137109868660808 -0.7446234800508431 0 0.006791149535697621 0 0 0 0 0 20 60 0 -20 30
-0.04867677323760829 -0.08881606363331417 0.08300096314304825 -0.5807898512381887 -0.0593188155928516 -0.8118893965835159 0 0.006791149535697621 0 0 0 0 0 20 60 0 -10 10
-0.04528617783972135 -0.08620777499588861 0.08556645525751952 -0.6331335538939233 -0.21137109868660808 -0.7446234800508428 0 0.006791149535697621 0 0 0 0 0 20 60 0 -10 20
-0.04196036975179302 -0.08302308299492756 0.08748421279667684 -0.666217897906029 -0.3570150202071309 -0.6547472438472234 0 0.006791149535697621 0 0 0 0 0 20 60 0 -10 30
-0.04505458304803118 -0.08731117533761072 0.08696691464035429 -0.5807898512381888 -0.05931881559285163 -0.8118893965835161 0 0.006791149535697621 0 0 0 0 0 20 60 0 0 0
-0.041663987650144244 -0.08470288670018516 0.08953240675482557 -0.6331335538939233 -0.21137109868660808 -0.7446234800508428 0 0.006791149535697621 0 0 0 0 0 20 60 0 0 10
-0.03833817956221591 -0.08151819469922411 0.09145016429398288 -0.6662178979060288 -0.357015020207131 -0.654747243847223 0 0.006791149535697621 0 0 0 0 0 20 60 0 0 20
-0.03517821178005778 -0.07785386458964483 0.09266191716543108 -0.6790376322231834 -0.4918252632983994 -0.5449915319301339 0 0.006791149535697621 0 0 0 0 0 20 60 0 0 30
-0.041292274465630656 -0.08501502845802553 0.09038546191502589 -0.5807898512381887 -0.05931881559285169 -0.8118893965835158 0 0.006791149535697621 0 0 0 0 0 20 60 0 10 -10
-0.03790167906774373 -0.08240673982059998 0.09295095402949716 -0.6331335538939233 -0.21137109868660808 -0.7446234800508428 0 0.006791149535697621 0 0 0 0 0 20 60 0 10 0
-0.0345758709798154 -0.07922204781963892 0.09486871156865448 -0.6662178979060287 -0.3570150202071308 -0.6547472438472229 0 0.006791149535697621 0 0 0 0 0 20 60 0 10 10
-0.031415903197657274 -0.07555771771005963 0.09608046444010267 -0.6790376322231828 -0.49182526329839926 -0.5449915319301337 0 0.006791149535697621 0 0 0 0 0 20 60 0 10 20
-0.02851778974330938 -0.0715250883080012 0.09654939414601933 -0.6712032357052581 -0.6117056869413596 -0.41869121606710574 0 0.006791149535697621 0 0 0 0 0 20 60 0 10 30
-0.03411356793497606 -0.07938910161816289 0.09571822625246182 -0.6331335538939232 -0.2113710986866081 -0.7446234800508427 0 0.006791149535697621 0 0 0 0 0 20 60 0 20 -10
-0.030787759847047725 -0.07620440961720182 0.09763598379161913 -0.6662178979060288 -0.357015020207131 -0.654747243847223 0 0.006791149535697621 0 0 0 0 0 20 60 0 20 0
-0.027627792064889606 -0.07254007950762253 0.09884773666306731 -0.6790376322231828 -0.49182526329839926 -0.5449915319301337 0 0.006791149535697621 0 0 0 0 0 20 60 0 20 10
-0.024729678610541716 -0.06850745010556408 0.09931666636898398 -0.6712032357052579 -0.6117056869413595 -0.4186912160671056 0 0.006791149535697621 0 0 0 0 0 20 60 0 20 20
-0.02218147719479825 -0.06422905081479909 0.09902852471754471 -0.6429527525260545 -0.7130137851260421 -0.27968386744459317 0 0.006791149535697621 0 0 0 0 0 20 60 0 20 30
-0.044482954518984125 -0.09346558193171627 0.07309174138938118 -0.6228873058670278 -0.03666648215668098 -0.7814518147303331 0 0.006791149535697621 0 0 0 0 0 20 60 10 -20 20
-0.04124349785134451 -0.0907765170990399 0.0757667941705162 -0.6533214532793669 -0.20042834167272902 -0.7300681639467766 0 0.006791149535697621 0 0 0 0 0 20 60 10 -20 30
-0.04092394843110984 -0.09289761586636558 0.07734904241774196 -0.6228873058670277 -0.036666482156680905 -0.7814518147303331 0 0.006791149535697621 0 0 0 0 0 20 60 10 -10 10
-0.03768449176347023 -0.0902085510336892 0.08002409519887696 -0.6533214532793667 -0.20042834167272894 -0.7300681639467762 0 0.006791149535697621 0 0 0 0 0 20 60 10 -10 20
-0.034616604079378305 -0.08688601330076146 0.082128819581968 -0.6638824279899378 -0.35810989294857587 -0.656519148119768 0 0.006791149535697621 0 0 0 0 0 20 60 10 -10 30
-0.03723878958221139 -0.09142638121266176 0.08126934785011894 -0.6228873058670279 -0.03666648215668094 -0.7814518147303332 0 0.006791149535697621 0 0 0 0 0 20 60 10 0 0
-0.033999332914571787 -0.08873731637998539 0.08394440063125394 -0.6533214532793667 -0.20042834167272894 -0.7300681639467763 0 0.006791149535697621 0 0 0 0 0 20 60 10 0 10
-0.03093144523047986 -0.08541477864705763 0.08604912501434497 -0.6638824279899377 -0.35810989294857576 -0.6565191481197677 0 0.006791149535697621 0 0 0 0 0 20 60 10 0 20
-0.02812834274479066 -0.08155972164160828 0.08751957001405375 -0.6542493401262709 -0.5049200618394197 -0.5630395168776134 0 0.006791149535697621 0 0 0 0 0 20 60 10 0 30
-0.03353944965913221 -0.08909658069107695 0.08473354118971958 -0.6228873058670277 -0.036666482156680905 -0.7814518147303331 0 0.006791149535697621 0 0 0 0 0 20 60 10 10 -10
-0.030299992991492605 -0.08640751585840059 0.08740859397085458 -0.6533214532793667 -0.20042834167272894 -0.7300681639467763 0 0.006791149535697621 0 0 0 0 0 20 60 10 10 0
-0.027232105307400677 -0.08308497812547282 0.08951331835394562 -0.6638824279899375 -0.3581098929485757 -0.6565191481197676 0 0.006791149535697621 0 0 0 0 0 20 60 10 10 10
-0.024429002821711482 -0.07922992112002347 0.09098376335365438 -0.6542493401262707 -0.5049200618394195 -0.5630395168776132 0 0.006791149535697621 0 0 0 0 0 20 60 10 10 20
-0.021975856385014383 -0.07495947879841013 0.09177525024274581 -0.6247148861885261 -0.6363980956530422 -0.45246960151263027 0 0.006791149535697621 0 0 0 0 0 20 60 10 10 30
-0.02669887456583912 -0.0832899392788472 0.09031141745602159 -0.6533214532793667 -0.20042834167272894 -0.7300681639467762 0 0.006791149535697621 0 0 0 0 0 20 60 10 20 -10
-0.02363098688174719 -0.07996740154591944 0.09241614183911262 -0.6638824279899377 -0.35810989294857576 -0.6565191481197677 0 0.006791149535697621 0 0 0 0 0 20 60 10 20 0
-0.020827884396057997 -0.07611234454047008 0.09388658683882138 -0.6542493401262708 -0.5049200618394195 -0.5630395168776132 0 0.006791149535697621 0 0 0 0 0 20 60 10 20 10
-0.018374737959360905 -0.07184190221885674 0.09467807372791281 -0.624714886188526 -0.6363980956530421 -0.45246960151263005 0 0.006791149535697621 0 0 0 0 0 20 60 10 20 20
-0.016346085184782956 -0.06728582981007356 0.09476655357777354 -0.5761764556144472 -0.748549100863112 -0.3281690129521063 0 0.006791149535697621 0 0 0 0 0 20 60 10 20 30
-0.047126849593242086 -0.09211450060376553 0.0750401921537688 -0.5807898512381886 -0.059318815592851654 -0.8118893965835161 0 0.006791149535697621 0 0 0 0 0 20 70 -10 -20 20
-0.04373625419535515 -0.08950621196633998 0.07760568426824009 -0.6331335538939236 -0.21137109868660808 -0.7446234800508432 0 0.006791149535697621 0 0 0 0 0 20 70 -10 -20 30
-0.04375483621248199 -0.09144659616129855 0.07943304444433191 -0.5807898512381885 -0.0593188155928516 -0.811889396583516 0 0.006791149535697621 0 0 0 0 0 20 70 -10 -10 10
-0.040364240814595054 -0.08883830752387299 0.0819985365588032 -0.6331335538939232 -0.21137109868660808 -0.7446234800508428 0 0.006791149535697621 0 0 0 0 0 20 70 -10 -10 20
-0.03703843272666672 -0.08565361552291194 0.08391629409796052 -0.666217897906029 -0.3570150202071309 -0.6547472438472234 0 0.006791149535697621 0 0 0 0 0 20 70 -10 -10 30
-0.040132646022904866 -0.0899417078655951 0.08339899594163795 -0.5807898512381887 -0.05931881559285163 -0.8118893965835161 0 0.006791149535697621 0 0 0 0 0 20 70 -10 0 0
-0.03674205062501794 -0.08733341922816955 0.08596448805610923 -0.6331335538939233 -0.21137109868660808 -0.7446234800508428 0 0.006791149535697621 0 0 0 0 0 20 70 -10 0 10
-0.0334162425370896 -0.08414872722720848 0.08788224559526656 -0.6662178979060289 -0.357015020207131 -0.6547472438472232 0 0.006791149535697621 0 0 0 0 0 20 70 -10 0 20
-0.030256274754931478 -0.08048439711762921 0.08909399846671476 -0.6790376322231834 -0.4918252632983994 -0.544991531930134 0 0.006791149535697621 0 0 0 0 0 20 70 -10 0 30
-0.03637033744050436 -0.08764556098600992 0.08681754321630954 -0.5807898512381886 -0.05931881559285169 -0.811889396583516 0 0.006791149535697621 0 0 0 0 0 20 70 -10 10 -10
-0.03297974204261743 -0.08503727234858437 0.08938303533078082 -0.6331335538939233 -0.21137109868660808 -0.7446234800508428 0 0.006791149535697621 0 0 0 0 0 20 70 -10 10 0
-0.029653933954689096 -0.0818525803476233 0.09130079286993813 -0.6662178979060289 -0.3570150202071308 -0.6547472438472229 0 0.006791149535697621 0 0 0 0 0 20 70 -10 10 10
-0.026493966172530973 -0.07818825023804402 0.09251254574138632 -0.679037632223183 -0.49182526329839926 -0.5449915319301337 0 0.006791149535697621 0 0 0 0 0 20 70 -10 10 20
-0.02359585271818308 -0.07415562083598558 0.09298147544730298 -0.6712032357052582 -0.6117056869413596 -0.41869121606710563 0 0.006791149535697621 0 0 0 0 0 20 70 -10 10 30
-0.02919163090984975 -0.08201963414614727 0.09215030755374548 -0.6331335538939232 -0.2113710986866081 -0.7446234800508428 0 0.006791149535697621 0 0 0 0 0 20 70 -10 20 -10
-0.02586582282192142 -0.07883494214518622 0.0940680650929028 -0.6662178979060289 -0.357015020207131 -0.6547472438472232 0 0.006791149535697621 0 0 0 0 0 20 70 -10 20 0
-0.0227058550397633 -0.07517061203560692 0.09527981796435098 -0.6790376322231829 -0.49182526329839926 -0.5449915319301337 0 0.006791149535697621 0 0 0 0 0 20 70 -10 20 10
-0.019807741585415407 -0.07113798263354847 0.09574874767026764 -0.6712032357052579 -0.6117056869413595 -0.4186912160671056 0 0.006791149535697621 0 0 0 0 0 20 70 -10 20 20
-0.01725954016967194 -0.06685958334278347 0.09546060601882837 -0.6429527525260548 -0.7130137851260421 -0.27968386744459306 0 0.006791149535697621 0 0 0 0 0 20 70 -10 20 30
-0.03956101749385782 -0.09609611445970069 0.06952382269066486 -0.6228873058670281 -0.03666648215668098 -0.7814518147303334 0 0.006791149535697621 0 0 0 0 0 20 70 0 -20 20
-0.036321560826218215 -0.09340704962702431 0.07219887547179987 -0.6533214532793672 -0.2004283416727291 -0.730068163946777 0 0.006791149535697621 0 0 0 0 0 20 70 0 -20 30
-0.03600201140598353 -0.09552814839434998 0.07378112371902563 -0.6228873058670279 -0.03666648215668094 -0.7814518147303334 0 0.006791149535697621 0 0 0 0 0 20 70 0 -10 10
-0.03276255473834393 -0.09283908356167361 0.07645617650016064 -0.6533214532793669 -0.20042834167272905 -0.7300681639467765 0 0.006791149535697621 0 0 0 0 0 20 70 0 -10 20
-0.029694667054251993 -0.08951654582874585 0.07856090088325167 -0.6638824279899379 -0.358109892948576 -0.6565191481197681 0 0.006791149535697621 0 0 0 0 0 20 70 0 -10 30
-0.032316852557085086 -0.09405691374064618 0.0777014291514026 -0.6228873058670281 -0.036666482156680946 -0.7814518147303335 0 0.006791149535697621 0 0 0 0 0 20 70 0 0 0
-0.02907739588944548 -0.0913678489079698 0.0803764819325376 -0.653321453279367 -0.20042834167272902 -0.7300681639467765 0 0.006791149535697621 0 0 0 0 0 20 70 0 0 10
-0.026009508205353547 -0.08804531117504204 0.08248120631562864 -0.6638824279899378 -0.35810989294857587 -0.656519148119768 0 0.006791149535697621 0 0 0 0 0 20 70 0 0 20
-0.02320640571966435 -0.0841902541695927 0.08395165131533741 -0.6542493401262712 -0.5049200618394198 -0.5630395168776137 0 0.006791149535697621 0 0 0 0 0 20 70 0 0 30
-0.0286175126340059 -0.09172711321906135 0.08116562249100327 -0.622887305867028 -0.036666482156680905 -0.7814518147303333 0 0.006791149535697621 0 0 0 0 0 20 70 0 10 -10
-0.025378055966366296 -0.08903804838638499 0.08384067527213827 -0.653321453279367 -0.20042834167272902 -0.7300681639467765 0 0.006791149535697621 0 0 0 0 0 20 70 0 10 0
-0.02231016828227437 -0.08571551065345723 0.0859453996552293 -0.6638824279899377 -0.3581098929485758 -0.6565191481197679 0 0.006791149535697621 0 0 0 0 0 20 70 0 10 10
-0.01950706579658517 -0.08186045364800787 0.08741584465493807 -0.654249340126271 -0.5049200618394197 -0.5630395168776133 0 0.006791149535697621 0 0 0 0 0 20 70 0 10 20
-0.01705391935988807 -0.07759001132639454 0.0882073315440295 -0.6247148861885264 -0.6363980956530425 -0.4524696015126304 0 0.006791149535697621 0 0 0 0 0 20 70 0 10 30
-0.02177693754071281 -0.0859204718068316 0.08674349875730526 -0.6533214532793669 -0.20042834167272905 -0.7300681639467765 0 0.006791149535697621 0 0 0 0 0 20 70 0 20 -10
-0.018709049856620877 -0.08259793407390384 0.0888482231403963 -0.6638824279899378 -0.35810989294857587 -0.656519148119768 0 0.006791149535697621 0 0 0 0 0 20 70 0 20 0
-0.015905947370931685 -0.07874287706845448 0.09031866814010506 -0.6542493401262709 -0.5049200618394196 -0.5630395168776133 0 0.006791149535697621 0 0 0 0 0 20 70 0 20 10
-0.013452800934234592 -0.07447243474684113 0.09111015502919648 -0.6247148861885262 -0.6363980956530422 -0.45246960151263016 0 0.006791149535697621 0 0 0 0 0 20 70 0 20 20
-0.011424148159656644 -0.06991636233805795 0.09119863487905722 -0.5761764556144474 -0.7485491008631123 -0.3281690129521063 0 0.006791149535697621 0 0 0 0 0 20 70 0 20 30
-0.03197834131782531 -0.09850777769557396 0.06318250589101826 -0.6651511713358252 -0.022727583687216776 -0.7463627413528102 0 0.006791149535697621 0 0 0 0 0 20 70 10 -20 20
-0.028890540489870217 -0.09576924406418616 0.06598375135586909 -0.6736008016616829 -0.19366059897795776 -0.7132723868716627 0 0.006791149535697621 0 0 0 0 0 20 70 10 -20 30
-0.028231702741800063 -0.09800101569468513 0.06728367809980108 -0.6651511713358251 -0.022727583687216793 -0.7463627413528102 0 0.006791149535697621 0 0 0 0 0 20 70 10 -10 10
-0.025143901913844975 -0.09526248206329731 0.07008492356465192 -0.6736008016616825 -0.19366059897795782 -0.7132723868716625 0 0.006791149535697621 0 0 0 0 0 20 70 10 -10 20
-0.022334817088236574 -0.09185552511816578 0.07240499756654631 -0.6615613451104652 -0.35871421180584967 -0.6585291689617868 0 0.006791149535697621 0 0 0 0 0 20 70 10 -10 30
-0.024483359791198783 -0.0965503911382608 0.07115140809968143 -0.6651511713358254 -0.022727583687216796 -0.7463627413528103 0 0.006791149535697621 0 0 0 0 0 20 70 10 0 0
-0.021395558963243695 -0.09381185750687299 0.07395265356453226 -0.6736008016616826 -0.19366059897795776 -0.7132723868716625 0 0.006791149535697621 0 0 0 0 0 20 70 10 0 10
-0.018586474137635294 -0.09040490056174144 0.07627272756642664 -0.661561345110465 -0.35871421180584956 -0.6585291689617867 0 0.006791149535697621 0 0 0 0 0 20 70 10 0 20
-0.016141457935334176 -0.08643303896564063 0.07804113583083111 -0.6293986144772225 -0.5128733516662747 -0.5837964325979697 0 0.006791149535697621 0 0 0 0 0 20 70 10 0 30
-0.020847203969822432 -0.0941999805193965 0.07466817687177871 -0.6651511713358251 -0.022727583687216703 -0.7463627413528101 0 0.006791149535697621 0 0 0 0 0 20 70 10 10 -10
-0.017759403141867344 -0.09146144688800868 0.07746942233662954 -0.6736008016616826 -0.19366059897795776 -0.7132723868716625 0 0.006791149535697621 0 0 0 0 0 20 70 10 10 0
-0.014950318316258947 -0.08805448994287715 0.07978949633852392 -0.6615613451104649 -0.3587142118058494 -0.6585291689617865 0 0.006791149535697621 0 0 0 0 0 20 70 10 10 10
-0.01250530211395783 -0.08408262834677632 0.08155790460292839 -0.6293986144772222 -0.5128733516662743 -0.5837964325979693 0 0.006791149535697621 0 0 0 0 0 20 70 10 10 20
-0.010498645115033022 -0.07966654510444479 0.08272091493958679 -0.5780898580571187 -0.6514539711028623 -0.49134489415803634 0 0.006791149535697621 0 0 0 0 0 20 70 10 10 30
-0.014345917204364816 -0.08828266624399343 0.0805283746413745 -0.6736008016616825 -0.19366059897795793 -0.7132723868716625 0 0.006791149535697621 0 0 0 0 0 20 70 10 20 -10
-0.011536832378756415 -0.0848757092988619 0.08284844864326887 -0.661561345110465 -0.35871421180584956 -0.6585291689617867 0 0.006791149535697621 0 0 0 0 0 20 70 10 20 0
-0.009091816176455304 -0.08090384770276107 0.08461685690767334 -0.629398614477222 -0.5128733516662745 -0.5837964325979694 0 0.006791149535697621 0 0 0 0 0 20 70 10 20 10
-0.007085159177530501 -0.07648776446042953 0.08577986724433173 -0.5780898580571184 -0.6514539711028624 -0.4913448941580361 0 0.006791149535697621 0 0 0 0 0 20 70 10 20 20
-0.005577832639476896 -0.07176164002653958 0.08630214217267632 -0.509194066450495 -0.7702453681192099 -0.3839836468547486 0 0.006791149535697621 0 0 0 0 0 20 70 10 20 30
-0.06915098521979571 -0.07472188558455115 0.09098958092965737 -0.2776191035453099 -0.03925517792688223 -0.959888863265946 0 0.006791149535697621 0 0 0 0 0 30 50 -10 -20 0
-0.0662926392328137 -0.07255668528005779 0.09445697511230164 -0.3827183173689126 -0.16842832277597844 -0.9083823837495648 0 0.006791149535697621 0 0 0 0 0 30 50 -10 -20 10
-0.06314733324911913 -0.06989646701938064 0.0972696865500792 -0.4761671500294655 -0.2925036857257369 -0.8292806548684456 0 0.006791149535697621 0 0 0 0 0 30 50 -10 -20 20
-0.05981063579942495 -0.06682206018823499 0.09934225242925382 -0.555126206033969 -0.4077112996580921 -0.7249871426272354 0 0.006791149535697621 0 0 0 0 0 30 50 -10 -20 30
-0.06630549866978971 -0.07283159041137348 0.09539908342801182 -0.2776191035453098 -0.03925517792688222 -0.9598888632659457 0 0.006791149535697621 0 0 0 0 0 30 50 -10 -10 -10
-0.0634471526828077 -0.07066639010688013 0.0988664776106561 -0.3827183173689126 -0.1684283227759785 -0.9083823837495647 0 0.006791149535697621 0 0 0 0 0 30 50 -10 -10 0
-0.06030184669911314 -0.06800617184620297 0.10167918904843365 -0.47616715002946547 -0.2925036857257368 -0.8292806548684454 0 0.006791149535697621 0 0 0 0 0 30 50 -10 -10 10
-0.05696514924941896 -0.0649317650150573 0.10375175492760827 -0.5551262060339688 -0.40771129965809194 -0.724987142627235 0 0.006791149535697621 0 0 0 0 0 30 50 -10 -10 20
-0.053538444197283735 -0.06153658390928257 0.10502120138271018 -0.6171963544209358 -0.510550639521575 -0.598670752620319 0 0.006791149535697621 0 0 0 0 0 30 50 -10 -10 30
-0.060197210927318764 -0.06815864563847614 0.10264309224523514 -0.3827183173689126 -0.1684283227759785 -0.9083823837495647 0 0.006791149535697621 0 0 0 0 0 30 50 -10 0 -10
-0.0570519049436242 -0.06549842737779898 0.1054558036830127 -0.47616715002946564 -0.29250368572573693 -0.8292806548684456 0 0.006791149535697621 0 0 0 0 0 30 50 -10 0 0
-0.05371520749393002 -0.062424020546653324 0.10752836956218731 -0.5551262060339687 -0.40771129965809194 -0.7249871426272351 0 0.006791149535697621 0 0 0 0 0 30 50 -10 0 10
-0.050288502441794794 -0.05902883944087858 0.1087978160172892 -0.6171963544209358 -0.5105506395215749 -0.5986707526203188 0 0.006791149535697621 0 0 0 0 0 30 50 -10 0 20
-0.04687590848623124 -0.05541604492032919 0.10922557156015103 -0.6604916251406392 -0.5978969840136508 -0.4541695444388797 0 0.006791149535697621 0 0 0 0 0 30 50 -10 0 30
-0.05349625581834295 -0.0624494301608612 0.10848477992920386 -0.47616715002946547 -0.29250368572573676 -0.8292806548684454 0 0.006791149535697621 0 0 0 0 0 30 50 -10 10 -10
-0.05015955836864877 -0.05937502332971554 0.11055734580837848 -0.5551262060339687 -0.40771129965809194 -0.7249871426272351 0 0.006791149535697621 0 0 0 0 0 30 50 -10 10 0
-0.04673285331651354 -0.05597984222394079 0.11182679226348036 -0.6171963544209355 -0.5105506395215748 -0.5986707526203187 0 0.006791149535697621 0 0 0 0 0 30 50 -10 10 10
-0.043320259360949985 -0.05236704770339141 0.11225454780634217 -0.6604916251406387 -0.5978969840136504 -0.4541695444388794 0 0.006791149535697621 0 0 0 0 0 30 50 -10 10 20
-0.04002546644244202 -0.048646412701412026 0.11182761530124878 -0.6836965133007243 -0.6670963586563102 -0.29587411417237053 0 0.006791149535697621 0 0 0 0 0 30 50 -10 10 30
-0.046406238473001606 -0.05587741560181358 0.11274664975567715 -0.5551262060339688 -0.40771129965809194 -0.7249871426272348 0 0.006791149535697621 0 0 0 0 0 30 50 -10 20 -10
-0.042979533420866384 -0.05248223449603884 0.11401609621077904 -0.6171963544209358 -0.5105506395215749 -0.5986707526203188 0 0.006791149535697621 0 0 0 0 0 30 50 -10 20 0
-0.039566939465302826 -0.04886943997548945 0.11444385175364084 -0.6604916251406389 -0.5978969840136503 -0.4541695444388793 0 0.006791149535697621 0 0 0 0 0 30 50 -10 20 10
