# .PCD v0.7 - Point Cloud Data file format
VERSION 0.7
FIELDS x y z normal_x normal_y normal_z curvature xx xy xz zx zy zz a0
SIZE 4 4 4 4 4 4 4 4 4 4 4 4 4 4
TYPE F F F F F F F F F F F F F F
COUNT 1 1 1 1 1 1 1 1 1 1 1 1 1 1
WIDTH 320
HEIGHT 1
VIEWPOINT 0 0 0 1 0 0 0
POINTS 320
DATA ascii
0.0 -0.05490400000000001 -0.030601099999999985 0 0 0 0 0 0 0 0 0 0 15.0
0.0 -0.05490400000000001 -0.030601099999999985 0 0 0 0 0 0 0 0 0 0 15.0
-5.508779992930728e-19 -0.05550292914756347 -0.03509936023043227 0 0 0 0 0 0 0 0 0 0 15.0
-1.1017559985861456e-18 -0.056101858295126934 -0.039597620460864555 0 0 0 0 0 0 0 0 0 0 15.0
-1.6526339978792185e-18 -0.056700787442690394 -0.044095880691296836 0 0 0 0 0 0 0 0 0 0 15.0
-2.2035119971722913e-18 -0.05729971659025385 -0.04859414092172912 0 0 0 0 0 0 0 0 0 0 15.0
-2.754389996465364e-18 -0.05789864573781731 -0.0530924011521614 0 0 0 0 0 0 0 0 0 0 15.0
-3.305267995758437e-18 -0.05849757488538078 -0.05759066138259368 0 0 0 0 0 0 0 0 0 0 15.0
-3.85614599505151e-18 -0.05909650403294424 -0.06208892161302597 0 0 0 0 0 0 0 0 0 0 15.0
-3.85614599505151e-18 -0.05909650403294424 -0.06208892161302597 0 0 0 0 0 0 0 0 0 0 15.0
-3.85614599505151e-18 -0.05909650403294424 -0.06208892161302597 0 0 0 0 0 0 0 0 0 0 15.0
-3.7790149292731734e-18 -0.06380389429227828 -0.061459098664629425 0 0 0 0 0 0 0 0 0 0 15.0
-3.7018838634948376e-18 -0.06851128455161234 -0.06082927571623289 0 0 0 0 0 0 0 0 0 0 15.0
-3.624752797716501e-18 -0.07321867481094639 -0.060199452767836344 0 0 0 0 0 0 0 0 0 0 15.0
-3.5476217319381645e-18 -0.07792606507028044 -0.05956962981943981 0 0 0 0 0 0 0 0 0 0 15.0
-3.470490666159829e-18 -0.08263345532961448 -0.05893980687104326 0 0 0 0 0 0 0 0 0 0 15.0
-3.3933596003814922e-18 -0.08734084558894853 -0.05830998392264672 0 0 0 0 0 0 0 0 0 0 15.0
-3.3162285346031556e-18 -0.09204823584828259 -0.05768016097425018 0 0 0 0 0 0 0 0 0 0 15.0
-3.2390974688248195e-18 -0.09675562610761664 -0.05705033802585364 0 0 0 0 0 0 0 0 0 0 15.0
-3.161966403046483e-18 -0.10146301636695068 -0.0564205150774571 0 0 0 0 0 0 0 0 0 0 15.0
-3.0848353372681468e-18 -0.10617040662628473 -0.05579069212906056 0 0 0 0 0 0 0 0 0 0 15.0
-3.0848353372681468e-18 -0.10617040662628473 -0.05579069212906056 0 0 0 0 0 0 0 0 0 0 15.0
-3.0848353372681468e-18 -0.10617040662628473 -0.05579069212906056 0 0 0 0 0 0 0 0 0 0 15.0
-2.7477460295759984e-18 -0.11022290662628473 -0.05303814904539886 0 0 0 0 0 0 0 0 0 0 15.0
-2.41065672188385e-18 -0.11427540662628473 -0.05028560596173716 0 0 0 0 0 0 0 0 0 0 15.0
-2.073567414191702e-18 -0.11832790662628473 -0.047533062878075454 0 0 0 0 0 0 0 0 0 0 15.0
-1.7364781064995536e-18 -0.12238040662628472 -0.044780519794413755 0 0 0 0 0 0 0 0 0 0 15.0
-1.3993887988074052e-18 -0.12643290662628473 -0.042027976710752056 0 0 0 0 0 0 0 0 0 0 15.0
-1.0622994911152572e-18 -0.13048540662628472 -0.03927543362709035 0 0 0 0 0 0 0 0 0 0 15.0
-7.252101834231088e-19 -0.13453790662628473 -0.03652289054342865 0 0 0 0 0 0 0 0 0 0 15.0
-3.881208757309604e-19 -0.13859040662628472 -0.03377034745976695 0 0 0 0 0 0 0 0 0 0 15.0
-3.881208757309604e-19 -0.13859040662628472 -0.03377034745976695 0 0 0 0 0 0 0 0 0 0 15.0
0.0 -0.05490400000000001 -0.030601099999999985 0 0 0 0 0 0 0 0 0 0 5.0
0.0 -0.05490400000000001 -0.030601099999999985 0 0 0 0 0 0 0 0 0 0 5.0
-5.552456132651179e-19 -0.05471271537633931 -0.035135024505022185 0 0 0 0 0 0 0 0 0 0 5.0
-1.1104912265302358e-18 -0.0545214307526786 -0.03966894901004438 0 0 0 0 0 0 0 0 0 0 5.0
-1.6657368397953536e-18 -0.0543301461290179 -0.044202873515066576 0 0 0 0 0 0 0 0 0 0 5.0
-2.2209824530604716e-18 -0.0541388615053572 -0.048736798020088776 0 0 0 0 0 0 0 0 0 0 5.0
-2.7762280663255892e-18 -0.0539475768816965 -0.05327072252511097 0 0 0 0 0 0 0 0 0 0 5.0
-3.3314736795907072e-18 -0.05375629225803579 -0.05780464703013317 0 0 0 0 0 0 0 0 0 0 5.0
-3.886719292855825e-18 -0.05356500763437509 -0.06233857153515537 0 0 0 0 0 0 0 0 0 0 5.0
-3.886719292855825e-18 -0.05356500763437509 -0.06233857153515537 0 0 0 0 0 0 0 0 0 0 5.0
-3.886719292855825e-18 -0.05356500763437509 -0.06233857153515537 0 0 0 0 0 0 0 0 0 0 5.0
-3.910866292753407e-18 -0.05831024966546328 -0.06253574675264986 0 0 0 0 0 0 0 0 0 0 5.0
-3.935013292650989e-18 -0.06305549169655147 -0.06273292197014435 0 0 0 0 0 0 0 0 0 0 5.0
-3.959160292548572e-18 -0.06780073372763967 -0.06293009718763885 0 0 0 0 0 0 0 0 0 0 5.0
-3.983307292446154e-18 -0.07254597575872787 -0.06312727240513334 0 0 0 0 0 0 0 0 0 0 5.0
-4.007454292343736e-18 -0.07729121778981606 -0.06332444762262783 0 0 0 0 0 0 0 0 0 0 5.0
-4.031601292241318e-18 -0.08203645982090425 -0.06352162284012233 0 0 0 0 0 0 0 0 0 0 5.0
-4.0557482921389e-18 -0.08678170185199244 -0.06371879805761682 0 0 0 0 0 0 0 0 0 0 5.0
-4.079895292036483e-18 -0.09152694388308064 -0.06391597327511131 0 0 0 0 0 0 0 0 0 0 5.0
-4.104042291934065e-18 -0.09627218591416883 -0.06411314849260581 0 0 0 0 0 0 0 0 0 0 5.0
-4.128189291831647e-18 -0.10101742794525702 -0.0643103237101003 0 0 0 0 0 0 0 0 0 0 5.0
-4.128189291831647e-18 -0.10101742794525702 -0.0643103237101003 0 0 0 0 0 0 0 0 0 0 5.0
-4.128189291831647e-18 -0.10101742794525702 -0.0643103237101003 0 0 0 0 0 0 0 0 0 0 5.0
-3.791099984139499e-18 -0.10506992794525702 -0.0615577806264386 0 0 0 0 0 0 0 0 0 0 5.0
-3.4540106764473515e-18 -0.10912242794525702 -0.0588052375427769 0 0 0 0 0 0 0 0 0 0 5.0
-3.116921368755204e-18 -0.11317492794525702 -0.056052694459115204 0 0 0 0 0 0 0 0 0 0 5.0
-2.779832061063056e-18 -0.117227427945257 -0.053300151375453506 0 0 0 0 0 0 0 0 0 0 5.0
-2.442742753370908e-18 -0.12127992794525702 -0.05054760829179181 0 0 0 0 0 0 0 0 0 0 5.0
-2.1056534456787602e-18 -0.125332427945257 -0.0477950652081301 0 0 0 0 0 0 0 0 0 0 5.0
-1.7685641379866126e-18 -0.12938492794525702 -0.0450425221244684 0 0 0 0 0 0 0 0 0 0 5.0
-1.4314748302944646e-18 -0.133437427945257 -0.042289979040806704 0 0 0 0 0 0 0 0 0 0 5.0
-1.4314748302944646e-18 -0.133437427945257 -0.042289979040806704 0 0 0 0 0 0 0 0 0 0 5.0
0.0 -0.05490400000000001 -0.030601099999999985 0 0 0 0 0 0 0 0 0 0 40.0
0.0 -0.05490400000000001 -0.030601099999999985 0 0 0 0 0 0 0 0 0 0 40.0
-4.682669572117685e-19 -0.057347861069762605 -0.03442478987970893 0 0 0 0 0 0 0 0 0 0 40.0
-9.36533914423537e-19 -0.0597917221395252 -0.03824847975941788 0 0 0 0 0 0 0 0 0 0 40.0
-1.4048008716353054e-18 -0.0622355832092878 -0.04207216963912682 0 0 0 0 0 0 0 0 0 0 40.0
-1.873067828847074e-18 -0.0646794442790504 -0.04589585951883576 0 0 0 0 0 0 0 0 0 0 40.0
-2.341334786058842e-18 -0.067123305348813 -0.04971954939854471 0 0 0 0 0 0 0 0 0 0 40.0
-2.809601743270611e-18 -0.06956716641857559 -0.05354323927825366 0 0 0 0 0 0 0 0 0 0 40.0
-3.2778687004823793e-18 -0.0720110274883382 -0.057366929157962605 0 0 0 0 0 0 0 0 0 0 40.0
-3.2778687004823793e-18 -0.0720110274883382 -0.057366929157962605 0 0 0 0 0 0 0 0 0 0 40.0
-3.2778687004823793e-18 -0.0720110274883382 -0.057366929157962605 0 0 0 0 0 0 0 0 0 0 40.0
-2.96432941838006e-18 -0.07601119725733738 -0.05480668662664158 0 0 0 0 0 0 0 0 0 0 40.0
-2.650790136277741e-18 -0.08001136702633654 -0.05224644409532055 0 0 0 0 0 0 0 0 0 0 40.0
-2.3372508541754216e-18 -0.08401153679533573 -0.04968620156399953 0 0 0 0 0 0 0 0 0 0 40.0
-2.0237115720731026e-18 -0.08801170656433491 -0.04712595903267851 0 0 0 0 0 0 0 0 0 0 40.0
-1.7101722899707832e-18 -0.09201187633333408 -0.04456571650135748 0 0 0 0 0 0 0 0 0 0 40.0
-1.3966330078684638e-18 -0.09601204610233326 -0.042005473970036455 0 0 0 0 0 0 0 0 0 0 40.0
-1.0830937257661445e-18 -0.10001221587133244 -0.03944523143871543 0 0 0 0 0 0 0 0 0 0 40.0
-7.695544436638255e-19 -0.1040123856403316 -0.0368849889073944 0 0 0 0 0 0 0 0 0 0 40.0
-4.560151615615061e-19 -0.10801255540933077 -0.034324746376073384 0 0 0 0 0 0 0 0 0 0 40.0
-1.424758794591871e-19 -0.11201272517832996 -0.03176450384475236 0 0 0 0 0 0 0 0 0 0 40.0
-1.424758794591871e-19 -0.11201272517832996 -0.03176450384475236 0 0 0 0 0 0 0 0 0 0 40.0
-1.424758794591871e-19 -0.11201272517832996 -0.03176450384475236 0 0 0 0 0 0 0 0 0 0 40.0
1.9461342823296263e-19 -0.11606522517832996 -0.029011960761090656 0 0 0 0 0 0 0 0 0 0 40.0
5.317027359251124e-19 -0.12011772517832996 -0.026259417677428957 0 0 0 0 0 0 0 0 0 0 40.0
8.687920436172621e-19 -0.12417022517832996 -0.023506874593767255 0 0 0 0 0 0 0 0 0 0 40.0
1.2058813513094119e-18 -0.12822272517832994 -0.020754331510105556 0 0 0 0 0 0 0 0 0 0 40.0
1.5429706590015616e-18 -0.13227522517832996 -0.018001788426443854 0 0 0 0 0 0 0 0 0 0 40.0
1.8800599666937113e-18 -0.13632772517832994 -0.015249245342782151 0 0 0 0 0 0 0 0 0 0 40.0
2.2171492743858613e-18 -0.14038022517832993 -0.012496702259120453 0 0 0 0 0 0 0 0 0 0 40.0
2.554238582078011e-18 -0.14443272517832995 -0.00974415917545875 0 0 0 0 0 0 0 0 0 0 40.0
2.554238582078011e-18 -0.14443272517832995 -0.00974415917545875 0 0 0 0 0 0 0 0 0 0 40.0
0.0 -0.05490400000000001 -0.030601099999999985 0 0 0 0 0 0 0 0 0 0 45.0
0.0 -0.05490400000000001 -0.030601099999999985 0 0 0 0 0 0 0 0 0 0 45.0
-4.404005085997647e-19 -0.05767181797207307 -0.03419724305860586 0 0 0 0 0 0 0 0 0 0 45.0
-8.808010171995294e-19 -0.06043963594414613 -0.037793386117211725 0 0 0 0 0 0 0 0 0 0 45.0
-1.3212015257992941e-18 -0.06320745391621918 -0.0413895291758176 0 0 0 0 0 0 0 0 0 0 45.0
-1.7616020343990587e-18 -0.06597527188829225 -0.044985672234423464 0 0 0 0 0 0 0 0 0 0 45.0
-2.2020025429988233e-18 -0.0687430898603653 -0.04858181529302934 0 0 0 0 0 0 0 0 0 0 45.0
-2.6424030515985883e-18 -0.07151090783243835 -0.052177958351635204 0 0 0 0 0 0 0 0 0 0 45.0
-3.0828035601983533e-18 -0.07427872580451142 -0.05577410141024108 0 0 0 0 0 0 0 0 0 0 45.0
-3.0828035601983533e-18 -0.07427872580451142 -0.05577410141024108 0 0 0 0 0 0 0 0 0 0 45.0
-3.0828035601983533e-18 -0.07427872580451142 -0.05577410141024108 0 0 0 0 0 0 0 0 0 0 45.0
-2.727761577141803e-18 -0.07804053388042385 -0.05287496360737623 0 0 0 0 0 0 0 0 0 0 45.0
-2.3727195940852525e-18 -0.08180234195633629 -0.04997582580451139 0 0 0 0 0 0 0 0 0 0 45.0
-2.0176776110287018e-18 -0.08556415003224871 -0.047076688001646536 0 0 0 0 0 0 0 0 0 0 45.0
-1.6626356279721514e-18 -0.08932595810816114 -0.044177550198781695 0 0 0 0 0 0 0 0 0 0 45.0
-1.307593644915601e-18 -0.09308776618407358 -0.04127841239591685 0 0 0 0 0 0 0 0 0 0 45.0
-9.525516618590503e-19 -0.09684957425998601 -0.038379274593052 0 0 0 0 0 0 0 0 0 0 45.0
-5.975096788024999e-19 -0.10061138233589845 -0.03548013679018716 0 0 0 0 0 0 0 0 0 0 45.0
-2.424676957459495e-19 -0.10437319041181087 -0.032580998987322314 0 0 0 0 0 0 0 0 0 0 45.0
1.1257428731060087e-19 -0.10813499848772332 -0.029681861184457467 0 0 0 0 0 0 0 0 0 0 45.0
4.676162703671512e-19 -0.11189680656363574 -0.026782723381592623 0 0 0 0 0 0 0 0 0 0 45.0
4.676162703671512e-19 -0.11189680656363574 -0.026782723381592623 0 0 0 0 0 0 0 0 0 0 45.0
4.676162703671512e-19 -0.11189680656363574 -0.026782723381592623 0 0 0 0 0 0 0 0 0 0 45.0
8.047055780593008e-19 -0.11594930656363574 -0.02403018029793092 0 0 0 0 0 0 0 0 0 0 45.0
1.1417948857514503e-18 -0.12000180656363574 -0.021277637214269222 0 0 0 0 0 0 0 0 0 0 45.0
1.4788841934435999e-18 -0.12405430656363572 -0.018525094130607524 0 0 0 0 0 0 0 0 0 0 45.0
1.8159735011357494e-18 -0.1281068065636357 -0.01577255104694582 0 0 0 0 0 0 0 0 0 0 45.0
2.153062808827899e-18 -0.13215930656363573 -0.013020007963284121 0 0 0 0 0 0 0 0 0 0 45.0
2.4901521165200485e-18 -0.1362118065636357 -0.01026746487962242 0 0 0 0 0 0 0 0 0 0 45.0
2.827241424212198e-18 -0.14026430656363573 -0.007514921795960718 0 0 0 0 0 0 0 0 0 0 45.0
3.1643307319043476e-18 -0.1443168065636357 -0.0047623787122990195 0 0 0 0 0 0 0 0 0 0 45.0
3.1643307319043476e-18 -0.1443168065636357 -0.004762378712299019 0 0 0 0 0 0 0 0 0 0 45.0
0.0 -0.05490400000000001 -0.030601099999999985 0 0 0 0 0 0 0 0 0 0 30.0
0.0 -0.05490400000000001 -0.030601099999999985 0 0 0 0 0 0 0 0 0 0 30.0
-5.131235136869517e-19 -0.05664675654921198 -0.0347910714598871 0 0 0 0 0 0 0 0 0 0 30.0
-1.0262470273739034e-18 -0.058389513098423954 -0.03898104291977422 0 0 0 0 0 0 0 0 0 0 30.0
-1.5393705410608551e-18 -0.06013226964763592 -0.04317101437966134 0 0 0 0 0 0 0 0 0 0 30.0
-2.052494054747807e-18 -0.06187502619684789 -0.04736098583954845 0 0 0 0 0 0 0 0 0 0 30.0
-2.565617568434758e-18 -0.06361778274605986 -0.05155095729943557 0 0 0 0 0 0 0 0 0 0 30.0
-3.0787410821217103e-18 -0.06536053929527183 -0.05574092875932268 0 0 0 0 0 0 0 0 0 0 30.0
-3.591864595808662e-18 -0.06710329584448381 -0.059930900219209805 0 0 0 0 0 0 0 0 0 0 30.0
-3.591864595808662e-18 -0.06710329584448381 -0.059930900219209805 0 0 0 0 0 0 0 0 0 0 30.0
-3.591864595808662e-18 -0.06710329584448381 -0.059930900219209805 0 0 0 0 0 0 0 0 0 0 30.0
-3.368155364171681e-18 -0.07148727549630851 -0.05810417571551831 0 0 0 0 0 0 0 0 0 0 30.0
-3.1444461325347e-18 -0.07587125514813323 -0.05627745121182682 0 0 0 0 0 0 0 0 0 0 30.0
-2.920736900897719e-18 -0.08025523479995793 -0.054450726708135326 0 0 0 0 0 0 0 0 0 0 30.0
-2.697027669260738e-18 -0.08463921445178264 -0.052624002204443826 0 0 0 0 0 0 0 0 0 0 30.0
-2.473318437623757e-18 -0.08902319410360734 -0.05079727770075233 0 0 0 0 0 0 0 0 0 0 30.0
-2.249609205986776e-18 -0.09340717375543206 -0.04897055319706084 0 0 0 0 0 0 0 0 0 0 30.0
-2.025899974349795e-18 -0.09779115340725676 -0.04714382869336935 0 0 0 0 0 0 0 0 0 0 30.0
-1.802190742712814e-18 -0.10217513305908146 -0.045317104189677854 0 0 0 0 0 0 0 0 0 0 30.0
-1.5784815110758331e-18 -0.10655911271090618 -0.04349037968598636 0 0 0 0 0 0 0 0 0 0 30.0
-1.3547722794388522e-18 -0.11094309236273088 -0.04166365518229487 0 0 0 0 0 0 0 0 0 0 30.0
-1.3547722794388522e-18 -0.11094309236273088 -0.04166365518229487 0 0 0 0 0 0 0 0 0 0 30.0
-1.3547722794388522e-18 -0.11094309236273088 -0.04166365518229487 0 0 0 0 0 0 0 0 0 0 30.0
-1.0176829717467032e-18 -0.11499559236273088 -0.03891111209863317 0 0 0 0 0 0 0 0 0 0 30.0
-6.805936640545543e-19 -0.11904809236273088 -0.03615856901497146 0 0 0 0 0 0 0 0 0 0 30.0
-3.435043563624053e-19 -0.12310059236273088 -0.033406025931309764 0 0 0 0 0 0 0 0 0 0 30.0
-6.415048670256337e-21 -0.12715309236273087 -0.030653482847648066 0 0 0 0 0 0 0 0 0 0 30.0
3.3067425902189263e-19 -0.13120559236273088 -0.027900939763986363 0 0 0 0 0 0 0 0 0 0 30.0
6.677635667140416e-19 -0.13525809236273087 -0.02514839668032466 0 0 0 0 0 0 0 0 0 0 30.0
1.0048528744061908e-18 -0.13931059236273086 -0.022395853596662962 0 0 0 0 0 0 0 0 0 0 30.0
1.3419421820983395e-18 -0.14336309236273087 -0.01964331051300126 0 0 0 0 0 0 0 0 0 0 30.0
1.3419421820983395e-18 -0.14336309236273087 -0.01964331051300126 0 0 0 0 0 0 0 0 0 0 30.0
0.0 -0.05490400000000001 -0.030601099999999985 0 0 0 0 0 0 0 0 0 0 20.0
0.0 -0.05490400000000001 -0.030601099999999985 0 0 0 0 0 0 0 0 0 0 20.0
-5.423890718517831e-19 -0.05589269925279092 -0.035030042877484464 0 0 0 0 0 0 0 0 0 0 20.0
-1.0847781437035663e-18 -0.05688139850558182 -0.039458985754968944 0 0 0 0 0 0 0 0 0 0 20.0
-1.6271672155553495e-18 -0.05787009775837273 -0.04388792863245342 0 0 0 0 0 0 0 0 0 0 20.0
-2.1695562874071326e-18 -0.05885879701116364 -0.0483168715099379 0 0 0 0 0 0 0 0 0 0 20.0
-2.7119453592589156e-18 -0.05984749626395454 -0.052745814387422374 0 0 0 0 0 0 0 0 0 0 20.0
-3.254334431110699e-18 -0.06083619551674545 -0.05717475726490686 0 0 0 0 0 0 0 0 0 0 20.0
-3.7967235029624825e-18 -0.06182489476953636 -0.06160370014239134 0 0 0 0 0 0 0 0 0 0 20.0
-3.7967235029624825e-18 -0.06182489476953636 -0.06160370014239134 0 0 0 0 0 0 0 0 0 0 20.0
-3.7967235029624825e-18 -0.06182489476953636 -0.06160370014239134 0 0 0 0 0 0 0 0 0 0 20.0
-3.669641613591796e-18 -0.06645947930086664 -0.060565997766006845 0 0 0 0 0 0 0 0 0 0 20.0
-3.5425597242211095e-18 -0.07109406383219694 -0.05952829538962235 0 0 0 0 0 0 0 0 0 0 20.0
-3.4154778348504234e-18 -0.07572864836352722 -0.05849059301323785 0 0 0 0 0 0 0 0 0 0 20.0
-3.2883959454797372e-18 -0.0803632328948575 -0.057452890636853354 0 0 0 0 0 0 0 0 0 0 20.0
-3.1613140561090507e-18 -0.08499781742618778 -0.05641518826046886 0 0 0 0 0 0 0 0 0 0 20.0
-3.0342321667383643e-18 -0.08963240195751808 -0.055377485884084365 0 0 0 0 0 0 0 0 0 0 20.0
-2.907150277367678e-18 -0.09426698648884838 -0.05433978350769987 0 0 0 0 0 0 0 0 0 0 20.0
-2.7800683879969916e-18 -0.09890157102017866 -0.05330208113131537 0 0 0 0 0 0 0 0 0 0 20.0
-2.652986498626305e-18 -0.10353615555150894 -0.052264378754930875 0 0 0 0 0 0 0 0 0 0 20.0
-2.525904609255619e-18 -0.10817074008283922 -0.05122667637854638 0 0 0 0 0 0 0 0 0 0 20.0
-2.525904609255619e-18 -0.10817074008283922 -0.05122667637854638 0 0 0 0 0 0 0 0 0 0 20.0
-2.525904609255619e-18 -0.10817074008283922 -0.05122667637854638 0 0 0 0 0 0 0 0 0 0 20.0
-2.1888153015634706e-18 -0.11222324008283922 -0.04847413329488468 0 0 0 0 0 0 0 0 0 0 20.0
-1.8517259938713223e-18 -0.11627574008283922 -0.045721590211222976 0 0 0 0 0 0 0 0 0 0 20.0
-1.5146366861791735e-18 -0.12032824008283921 -0.04296904712756128 0 0 0 0 0 0 0 0 0 0 20.0
-1.177547378487025e-18 -0.12438074008283921 -0.04021650404389957 0 0 0 0 0 0 0 0 0 0 20.0
-8.404580707948767e-19 -0.1284332400828392 -0.03746396096023787 0 0 0 0 0 0 0 0 0 0 20.0
-5.033687631027279e-19 -0.1324857400828392 -0.03471141787657617 0 0 0 0 0 0 0 0 0 0 20.0
-1.6627945541057952e-19 -0.1365382400828392 -0.03195887479291447 0 0 0 0 0 0 0 0 0 0 20.0
1.7080985228156887e-19 -0.1405907400828392 -0.029206331709252766 0 0 0 0 0 0 0 0 0 0 20.0
1.7080985228156887e-19 -0.1405907400828392 -0.029206331709252766 0 0 0 0 0 0 0 0 0 0 20.0
0.0 -0.05490400000000001 -0.030601099999999985 0 0 0 0 0 0 0 0 0 0 10.0
0.0 -0.05490400000000001 -0.030601099999999985 0 0 0 0 0 0 0 0 0 0 10.0
-5.551744125305117e-19 -0.05510860082987976 -0.035134443106902696 0 0 0 0 0 0 0 0 0 0 10.0
-1.1103488250610235e-18 -0.05531320165975951 -0.03966778621380541 0 0 0 0 0 0 0 0 0 0 10.0
-1.6655232375915353e-18 -0.055517802489639265 -0.04420112932070812 0 0 0 0 0 0 0 0 0 0 10.0
-2.220697650122047e-18 -0.05572240331951901 -0.04873447242761082 0 0 0 0 0 0 0 0 0 0 10.0
-2.7758720626525586e-18 -0.05592700414939877 -0.053267815534513534 0 0 0 0 0 0 0 0 0 0 10.0
-3.3310464751830706e-18 -0.056131604979278514 -0.057801158641416245 0 0 0 0 0 0 0 0 0 0 10.0
-3.8862208877135826e-18 -0.05633620580915827 -0.062334501748318956 0 0 0 0 0 0 0 0 0 0 10.0
-3.8862208877135826e-18 -0.05633620580915827 -0.062334501748318956 0 0 0 0 0 0 0 0 0 0 10.0
-3.8862208877135826e-18 -0.05633620580915827 -0.062334501748318956 0 0 0 0 0 0 0 0 0 0 10.0
-3.8596276595111805e-18 -0.061080575714222596 -0.06211735156084516 0 0 0 0 0 0 0 0 0 0 10.0
-3.833034431308778e-18 -0.06582494561928692 -0.061900201373371364 0 0 0 0 0 0 0 0 0 0 10.0
-3.806441203106376e-18 -0.07056931552435125 -0.06168305118589757 0 0 0 0 0 0 0 0 0 0 10.0
-3.7798479749039736e-18 -0.07531368542941558 -0.06146590099842377 0 0 0 0 0 0 0 0 0 0 10.0
-3.753254746701571e-18 -0.0800580553344799 -0.06124875081094998 0 0 0 0 0 0 0 0 0 0 10.0
-3.726661518499169e-18 -0.08480242523954423 -0.061031600623476186 0 0 0 0 0 0 0 0 0 0 10.0
-3.700068290296767e-18 -0.08954679514460856 -0.060814450436002386 0 0 0 0 0 0 0 0 0 0 10.0
-3.6734750620943646e-18 -0.09429116504967289 -0.06059730024852859 0 0 0 0 0 0 0 0 0 0 10.0
-3.646881833891962e-18 -0.09903553495473721 -0.060380150061054794 0 0 0 0 0 0 0 0 0 0 10.0
-3.62028860568956e-18 -0.10377990485980154 -0.060162999873581 0 0 0 0 0 0 0 0 0 0 10.0
-3.62028860568956e-18 -0.10377990485980154 -0.060162999873581 0 0 0 0 0 0 0 0 0 0 10.0
-3.62028860568956e-18 -0.10377990485980154 -0.060162999873581 0 0 0 0 0 0 0 0 0 0 10.0
-3.2831992979974117e-18 -0.10783240485980154 -0.0574104567899193 0 0 0 0 0 0 0 0 0 0 10.0
-2.9461099903052637e-18 -0.11188490485980154 -0.054657913706257596 0 0 0 0 0 0 0 0 0 0 10.0
-2.6090206826131153e-18 -0.11593740485980154 -0.0519053706225959 0 0 0 0 0 0 0 0 0 0 10.0
-2.2719313749209673e-18 -0.11998990485980154 -0.0491528275389342 0 0 0 0 0 0 0 0 0 0 10.0
-1.9348420672288193e-18 -0.12404240485980154 -0.04640028445527249 0 0 0 0 0 0 0 0 0 0 10.0
-1.5977527595366709e-18 -0.12809490485980154 -0.043647741371610795 0 0 0 0 0 0 0 0 0 0 10.0
-1.2606634518445229e-18 -0.13214740485980153 -0.04089519828794909 0 0 0 0 0 0 0 0 0 0 10.0
-9.235741441523749e-19 -0.13619990485980155 -0.03814265520428739 0 0 0 0 0 0 0 0 0 0 10.0
-9.235741441523749e-19 -0.13619990485980155 -0.03814265520428739 0 0 0 0 0 0 0 0 0 0 10.0
0.0 -0.05490400000000001 -0.030601099999999985 0 0 0 0 0 0 0 0 0 0 0.0
0.0 -0.05490400000000001 -0.030601099999999985 0 0 0 0 0 0 0 0 0 0 0.0
-5.510910596163086e-19 -0.05431828571428572 -0.03510109999999998 0 0 0 0 0 0 0 0 0 0 0.0
-1.1021821192326172e-18 -0.05373257142857144 -0.039601099999999986 0 0 0 0 0 0 0 0 0 0 0.0
-1.6532731788489257e-18 -0.053146857142857155 -0.04410109999999998 0 0 0 0 0 0 0 0 0 0 0.0
-2.2043642384652344e-18 -0.05256114285714287 -0.04860109999999998 0 0 0 0 0 0 0 0 0 0 0.0
-2.7554552980815425e-18 -0.05197542857142859 -0.053101099999999984 0 0 0 0 0 0 0 0 0 0 0.0
-3.3065463576978513e-18 -0.0513897142857143 -0.05760109999999999 0 0 0 0 0 0 0 0 0 0 0.0
-3.85763741731416e-18 -0.050804000000000016 -0.062101099999999985 0 0 0 0 0 0 0 0 0 0 0.0
-3.85763741731416e-18 -0.050804000000000016 -0.062101099999999985 0 0 0 0 0 0 0 0 0 0 0.0
-3.85763741731416e-18 -0.050804000000000016 -0.062101099999999985 0 0 0 0 0 0 0 0 0 0 0.0
-3.932340872062149e-18 -0.055514000000000015 -0.06271109999999998 0 0 0 0 0 0 0 0 0 0 0.0
-4.007044326810138e-18 -0.060224000000000014 -0.06332109999999998 0 0 0 0 0 0 0 0 0 0 0.0
-4.081747781558128e-18 -0.06493400000000002 -0.06393109999999998 0 0 0 0 0 0 0 0 0 0 0.0
-4.156451236306116e-18 -0.06964400000000001 -0.06454109999999998 0 0 0 0 0 0 0 0 0 0 0.0
-4.231154691054105e-18 -0.07435400000000002 -0.06515109999999998 0 0 0 0 0 0 0 0 0 0 0.0
-4.305858145802094e-18 -0.07906400000000002 -0.06576109999999998 0 0 0 0 0 0 0 0 0 0 0.0
-4.380561600550084e-18 -0.08377400000000002 -0.06637109999999997 0 0 0 0 0 0 0 0 0 0 0.0
-4.455265055298072e-18 -0.08848400000000002 -0.06698109999999997 0 0 0 0 0 0 0 0 0 0 0.0
-4.529968510046061e-18 -0.09319400000000003 -0.06759109999999997 0 0 0 0 0 0 0 0 0 0 0.0
-4.60467196479405e-18 -0.09790400000000002 -0.06820109999999997 0 0 0 0 0 0 0 0 0 0 0.0
-4.60467196479405e-18 -0.09790400000000002 -0.06820109999999997 0 0 0 0 0 0 0 0 0 0 0.0
-4.60467196479405e-18 -0.09790400000000002 -0.06820109999999997 0 0 0 0 0 0 0 0 0 0 0.0
-4.267582657101902e-18 -0.10195650000000002 -0.06544855691633827 0 0 0 0 0 0 0 0 0 0 0.0
-3.930493349409755e-18 -0.10600900000000002 -0.06269601383267658 0 0 0 0 0 0 0 0 0 0 0.0
-3.593404041717607e-18 -0.1100615 -0.05994347074901487 0 0 0 0 0 0 0 0 0 0 0.0
-3.2563147340254595e-18 -0.11411400000000001 -0.05719092766535317 0 0 0 0 0 0 0 0 0 0 0.0
-2.919225426333312e-18 -0.11816650000000001 -0.05443838458169147 0 0 0 0 0 0 0 0 0 0 0.0
-2.582136118641164e-18 -0.122219 -0.051685841498029766 0 0 0 0 0 0 0 0 0 0 0.0
-2.2450468109490162e-18 -0.1262715 -0.04893329841436807 0 0 0 0 0 0 0 0 0 0 0.0
-1.9079575032568686e-18 -0.130324 -0.04618075533070637 0 0 0 0 0 0 0 0 0 0 0.0
-1.9079575032568686e-18 -0.130324 -0.04618075533070637 0 0 0 0 0 0 0 0 0 0 0.0
0.0 -0.05490400000000001 -0.030601099999999985 0 0 0 0 0 0 0 0 0 0 35.0
0.0 -0.05490400000000001 -0.030601099999999985 0 0 0 0 0 0 0 0 0 0 35.0
-4.925696115320712e-19 -0.05700530490906759 -0.034623236112020346 0 0 0 0 0 0 0 0 0 0 35.0
-9.851392230641423e-19 -0.059106609818135175 -0.03864537222404071 0 0 0 0 0 0 0 0 0 0 35.0
-1.4777088345962136e-18 -0.061207914727202765 -0.04266750833606107 0 0 0 0 0 0 0 0 0 0 35.0
-1.9702784461282846e-18 -0.06330921963627034 -0.046689644448081435 0 0 0 0 0 0 0 0 0 0 35.0
-2.4628480576603555e-18 -0.06541052454533794 -0.050711780560101796 0 0 0 0 0 0 0 0 0 0 35.0
-2.955417669192427e-18 -0.06751182945440552 -0.05473391667212216 0 0 0 0 0 0 0 0 0 0 35.0
-3.4479872807244984e-18 -0.0696131343634731 -0.05875605278414252 0 0 0 0 0 0 0 0 0 0 35.0
-3.4479872807244984e-18 -0.0696131343634731 -0.05875605278414252 0 0 0 0 0 0 0 0 0 0 35.0
-3.4479872807244984e-18 -0.0696131343634731 -0.05875605278414252 0 0 0 0 0 0 0 0 0 0 35.0
-3.178336922833404e-18 -0.0738212221182484 -0.056554190515945374 0 0 0 0 0 0 0 0 0 0 35.0
-2.9086865649423094e-18 -0.07802930987302369 -0.05435232824774823 0 0 0 0 0 0 0 0 0 0 35.0
-2.6390362070512145e-18 -0.08223739762779898 -0.052150465979551086 0 0 0 0 0 0 0 0 0 0 35.0
-2.36938584916012e-18 -0.08644548538257427 -0.04994860371135394 0 0 0 0 0 0 0 0 0 0 35.0
-2.0997354912690255e-18 -0.09065357313734956 -0.0477467414431568 0 0 0 0 0 0 0 0 0 0 35.0
-1.8300851333779306e-18 -0.09486166089212485 -0.045544879174959654 0 0 0 0 0 0 0 0 0 0 35.0
-1.560434775486836e-18 -0.09906974864690014 -0.04334301690676251 0 0 0 0 0 0 0 0 0 0 35.0
-1.2907844175957416e-18 -0.10327783640167543 -0.041141154638565366 0 0 0 0 0 0 0 0 0 0 35.0
-1.021134059704647e-18 -0.10748592415645072 -0.03893929237036823 0 0 0 0 0 0 0 0 0 0 35.0
-7.514837018135525e-19 -0.11169401191122601 -0.036737430102171086 0 0 0 0 0 0 0 0 0 0 35.0
-7.514837018135525e-19 -0.11169401191122601 -0.036737430102171086 0 0 0 0 0 0 0 0 0 0 35.0
-7.514837018135525e-19 -0.11169401191122601 -0.036737430102171086 0 0 0 0 0 0 0 0 0 0 35.0
-4.143943941214033e-19 -0.11574651191122601 -0.03398488701850939 0 0 0 0 0 0 0 0 0 0 35.0
-7.730508642925402e-20 -0.119799011911226 -0.031232343934847685 0 0 0 0 0 0 0 0 0 0 35.0
2.5978422126289533e-19 -0.123851511911226 -0.028479800851185986 0 0 0 0 0 0 0 0 0 0 35.0
5.968735289550445e-19 -0.127904011911226 -0.025727257767524284 0 0 0 0 0 0 0 0 0 0 35.0
9.339628366471937e-19 -0.13195651191122598 -0.022974714683862585 0 0 0 0 0 0 0 0 0 0 35.0
1.2710521443393432e-18 -0.13600901191122597 -0.020222171600200886 0 0 0 0 0 0 0 0 0 0 35.0
1.6081414520314924e-18 -0.14006151191122598 -0.017469628516539184 0 0 0 0 0 0 0 0 0 0 35.0
1.9452307597236415e-18 -0.14411401191122597 -0.014717085432877485 0 0 0 0 0 0 0 0 0 0 35.0
1.9452307597236415e-18 -0.14411401191122597 -0.014717085432877485 0 0 0 0 0 0 0 0 0 0 35.0
0.0 -0.05490400000000001 -0.030601099999999985 0 0 0 0 0 0 0 0 0 0 25.0
0.0 -0.05490400000000001 -0.030601099999999985 0 0 0 0 0 0 0 0 0 0 25.0
-5.297722360702257e-19 -0.05627494475971169 -0.034927018594970174 0 0 0 0 0 0 0 0 0 0 25.0
-1.0595444721404514e-18 -0.05764588951942337 -0.03925293718994037 0 0 0 0 0 0 0 0 0 0 25.0
-1.5893167082106771e-18 -0.05901683427913505 -0.04357885578491056 0 0 0 0 0 0 0 0 0 0 25.0
-2.1190889442809028e-18 -0.060387779038846734 -0.04790477437988075 0 0 0 0 0 0 0 0 0 0 25.0
-2.648861180351128e-18 -0.061758723798558415 -0.052230692974850945 0 0 0 0 0 0 0 0 0 0 25.0
-3.1786334164213542e-18 -0.0631296685582701 -0.05655661156982114 0 0 0 0 0 0 0 0 0 0 25.0
-3.70840565249158e-18 -0.06450061331798178 -0.06088253016479133 0 0 0 0 0 0 0 0 0 0 25.0
-3.70840565249158e-18 -0.06450061331798178 -0.06088253016479133 0 0 0 0 0 0 0 0 0 0 25.0
-3.70840565249158e-18 -0.06450061331798178 -0.06088253016479133 0 0 0 0 0 0 0 0 0 0 25.0
-3.532340109440797e-18 -0.06902712013458623 -0.05944484590208499 0 0 0 0 0 0 0 0 0 0 25.0
-3.3562745663900143e-18 -0.07355362695119068 -0.05800716163937865 0 0 0 0 0 0 0 0 0 0 25.0
-3.180209023339232e-18 -0.07808013376779513 -0.05656947737667231 0 0 0 0 0 0 0 0 0 0 25.0
-3.004143480288449e-18 -0.08260664058439958 -0.055131793113965974 0 0 0 0 0 0 0 0 0 0 25.0
-2.8280779372376667e-18 -0.08713314740100403 -0.053694108851259637 0 0 0 0 0 0 0 0 0 0 25.0
-2.652012394186884e-18 -0.09165965421760848 -0.05225642458855329 0 0 0 0 0 0 0 0 0 0 25.0
-2.475946851136101e-18 -0.09618616103421293 -0.050818740325846955 0 0 0 0 0 0 0 0 0 0 25.0
-2.2998813080853182e-18 -0.10071266785081737 -0.04938105606314061 0 0 0 0 0 0 0 0 0 0 25.0
-2.1238157650345354e-18 -0.10523917466742182 -0.04794337180043427 0 0 0 0 0 0 0 0 0 0 25.0
-1.947750221983753e-18 -0.10976568148402627 -0.046505687537727936 0 0 0 0 0 0 0 0 0 0 25.0
-1.947750221983753e-18 -0.10976568148402627 -0.046505687537727936 0 0 0 0 0 0 0 0 0 0 25.0
-1.947750221983753e-18 -0.10976568148402627 -0.046505687537727936 0 0 0 0 0 0 0 0 0 0 25.0
-1.6106609142916042e-18 -0.11381818148402627 -0.04375314445406624 0 0 0 0 0 0 0 0 0 0 25.0
-1.2735716065994555e-18 -0.11787068148402627 -0.04100060137040454 0 0 0 0 0 0 0 0 0 0 25.0
-9.364822989073069e-19 -0.12192318148402626 -0.03824805828674284 0 0 0 0 0 0 0 0 0 0 25.0
-5.993929912151581e-19 -0.12597568148402627 -0.035495515203081134 0 0 0 0 0 0 0 0 0 0 25.0
-2.6230368352300934e-19 -0.13002818148402626 -0.032742972119419435 0 0 0 0 0 0 0 0 0 0 25.0
7.478562416913925e-20 -0.13408068148402624 -0.029990429035757736 0 0 0 0 0 0 0 0 0 0 25.0
4.1187493186128803e-19 -0.13813318148402626 -0.027237885952096034 0 0 0 0 0 0 0 0 0 0 25.0
7.489642395534368e-19 -0.14218568148402624 -0.024485342868434335 0 0 0 0 0 0 0 0 0 0 25.0
7.489642395534368e-19 -0.14218568148402624 -0.024485342868434335 0 0 0 0 0 0 0 0 0 0 25.0
