# .PCD v0.7 - Point Cloud Data file format
VERSION 0.7
FIELDS x y z normal_x normal_y normal_z curvature xx xy xz zx zy zz a0 a1 a2
SIZE 4 4 4 4 4 4 4 4 4 4 4 4 4 4 4 4
TYPE F F F F F F F F F F F F F F F F
COUNT 1 1 1 1 1 1 1 1 1 1 1 1 1 1 1 1
WIDTH 80
HEIGHT 1
VIEWPOINT 0 0 0 1 0 0 0
POINTS 80
DATA ascii
0.024405837784148593 -0.15064924816369502 0.09668604172691321 -0.0004048949922435269 0.17401133575810315 0.9847435451653171 0 0.008291067171669303 2.9370998308163507e-07 3.3571204684841053e-06 -8.342081794770322e-07 -0.023092057305900495 0.004080533880281614 0 40 0
0.024405837784148593 -0.1493621766383398 0.09190023446624541 -0.0004048949922435597 0.00036879047936060516 0.9999998293553148 0 0.008291067171669303 -2.937099830846726e-07 3.357120468484106e-06 -8.342081794768486e-07 -0.023449814340072078 8.64773198037965e-06 0 40 10
0.024405837784148596 -0.14726361191200865 0.0874106319964226 -0.0004048949922435907 -0.17328496031148036 0.9848716247546809 0 0.008291067171669303 -8.722057200394221e-07 3.255116061834158e-06 -8.342081794765342e-07 -0.023095060631699183 -0.004063501173281114 0 40 20
0.024405837784148596 -0.14441731781198608 0.08335364861664182 -0.00040489499224361886 -0.34167353526967786 0.9398185942049653 0 0.008291067171669303 -1.4241999275482094e-06 3.0542066008135994e-06 -8.342081794760983e-07 -0.02203857519269668 -0.008012182651623276 0 40 30
0.02440583778414859 -0.15761298906830729 0.08290988103568335 -0.0004048949922435597 0.0003687904793608049 0.9999998293553146 0 0.008291067171669303 -2.93709983084672e-07 3.3571204684841057e-06 -8.342081794768486e-07 -0.023449814340072084 8.64773198038727e-06 0 50 0
0.024405837784148593 -0.1555144243419761 0.07842027856586052 -0.0004048949922435907 -0.1732849603114802 0.9848716247546808 0 0.008291067171669303 -8.722057200394214e-07 3.255116061834158e-06 -8.342081794765342e-07 -0.023095060631699183 -0.00406350117328111 0 50 10
0.024405837784148593 -0.15266813024195353 0.07436329518607976 -0.00040489499224361886 -0.34167353526967775 0.9398185942049653 0 0.008291067171669303 -1.424199927548209e-06 3.0542066008135994e-06 -8.342081794760983e-07 -0.022038575192696683 -0.008012182651623265 0 50 20
0.024405837784148593 -0.14916058997417445 0.07086220028340304 -0.0004048949922436434 -0.4996805327538574 0.866209651241487 0 0.008291067171669303 -1.932920540938428e-06 2.760496617730447e-06 -8.342081794755544e-07 -0.020312458798521234 -0.011717418014455899 0 50 30
0.024405837784148593 -0.1620787299018588 0.06813377026238761 -0.0004048949922435907 -0.17328496031147975 0.9848716247546808 0 0.008291067171669303 -8.722057200394196e-07 3.255116061834158e-06 -8.342081794765342e-07 -0.023095060631699194 -0.004063501173281091 0 60 0
0.024405837784148593 -0.15923243580183621 0.06407678688260683 -0.00040489499224361886 -0.3416735352696774 0.939818594204965 0 0.008291067171669303 -1.4241999275482079e-06 3.0542066008135994e-06 -8.342081794760983e-07 -0.02203857519269669 -0.00801218265162325 0 60 10
0.024405837784148593 -0.15572489553405713 0.06057569197993011 -0.0004048949922436434 -0.49968053275385704 0.8662096512414871 0 0.008291067171669303 -1.932920540938427e-06 2.7604966177304477e-06 -8.342081794755544e-07 -0.020312458798521244 -0.011717418014455881 0 60 20
0.024405837784148593 -0.15166268393465698 0.05773686455133577 -0.0004048949922436635 -0.6425049901008605 0.7662813663482694 0 0.008291067171669303 -2.382910341797266e-06 2.3829103417962603e-06 -8.342081794749188e-07 -0.01796915862235283 -0.015066625560218882 0 60 30
0.024405837784148593 -0.16391078138889606 0.05280667405579971 -0.00040489499224361886 -0.3416735352696771 0.9398185942049649 0 0.008291067171669303 -1.4241999275482072e-06 3.054206600813599e-06 -8.342081794760983e-07 -0.0220385751926967 -0.00801218265162324 0 70 0
0.024405837784148593 -0.16040324112111698 0.04930557915312299 -0.0004048949922436434 -0.4996805327538569 0.8662096512414869 0 0.008291067171669303 -1.9329205409384262e-06 2.760496617730447e-06 -8.342081794755544e-07 -0.020312458798521255 -0.011717418014455873 0 70 10
0.024405837784148593 -0.15634102952171683 0.046466751724528646 -0.0004048949922436635 -0.6425049901008604 0.7662813663482694 0 0.008291067171669303 -2.382910341797266e-06 2.3829103417962603e-06 -8.342081794749188e-07 -0.017969158622352842 -0.01506662556021887 0 70 20
0.024405837784148596 -0.15184757483456512 0.044376448104918524 -0.0004048949922436786 -0.7658072584468619 0.6430700098956404 0 0.008291067171669303 -2.760496617731456e-06 1.9329205409374234e-06 -8.34208179474211e-07 -0.015079874654277245 -0.017958041312415022 0 70 30
0.024405837784148596 -0.16305347757204816 0.03739429847827193 -0.0004048949922436434 -0.4996805327538565 0.8662096512414867 0 0.008291067171669303 -1.9329205409384254e-06 2.7604966177304465e-06 -8.342081794755544e-07 -0.020312458798521258 -0.011717418014455862 0 80 0
0.024405837784148596 -0.158991265972648 0.03455547104967759 -0.0004048949922436635 -0.64250499010086 0.7662813663482692 0 0.008291067171669303 -2.382910341797265e-06 2.3829103417962595e-06 -8.342081794749188e-07 -0.017969158622352852 -0.01506662556021886 0 80 10
0.0244058377841486 -0.15449781128549633 0.03246516743006747 -0.0004048949922436786 -0.7658072584468616 0.6430700098956404 0 0.008291067171669303 -2.760496617731455e-06 1.9329205409374234e-06 -8.34208179474211e-07 -0.01507987465427725 -0.01795804131241501 0 80 20
0.0244058377841486 -0.1497096448574644 0.03118690043717876 -0.00040489499224368824 -0.8658408607621262 0.5003192966014589 0 0.008291067171669303 -3.0542066008146116e-06 1.4241999275472067e-06 -8.342081794734524e-07 -0.011732396325616202 -0.020303811066540806 0 80 30
0.04120421939498989 -0.15064924816369502 0.09532033868674712 0.17060017835971253 0.17401133575810315 0.9698533872850812 0 0.00816569018925649 2.937099830819702e-07 -0.0014364225870093256 0.0007077557375362962 -0.023092057305900495 0.004018686260460481 10 40 0
0.040373172685509766 -0.1493621766383398 0.09060723859201937 0.1732494043072744 0.00036879047936060516 0.9848778942375485 0 0.00816569018925649 -2.937099830843374e-07 -0.0014364225870093256 6.801282165709668e-07 -0.023449814340072078 8.661212230408775e-06 10 40 10
0.03959356139817608 -0.14726361191200865 0.0861858432717951 0.17062241914700185 -0.17328496031148036 0.9699795210576894 0 0.00816567247637716 -8.72205720039087e-07 -0.0014365230417398359 -0.0007064411083704725 -0.023095060631699183 -0.004001622601091286 10 40 20
0.03888907362745213 -0.14441731781198608 0.08219049458554531 0.16279904249367114 -0.34167353526967786 0.9256109472756334 0 0.008165637588815378 -1.4241999275478744e-06 -0.0014367208989347023 -0.001392122451271749 -0.02203857519269668 -0.007890314735138352 10 40 30
0.03881201419571103 -0.15761298906830729 0.08175346883128193 0.17324940430727442 0.0003687904793608049 0.9848778942375487 0 0.00816569018925649 -2.937099830843369e-07 -0.0014364225870093256 6.801282165726867e-07 -0.023449814340072084 8.661212230415283e-06 10 50 0
0.038032402908377345 -0.1555144243419761 0.07733207351105766 0.17062241914700188 -0.1732849603114802 0.9699795210576895 0 0.00816567247637716 -8.722057200390864e-07 -0.0014365230417398359 -0.0007064411083704714 -0.023095060631699183 -0.0040016226010912825 10 50 10
0.03732791513765339 -0.15266813024195353 0.07333672482480788 0.16279904249367116 -0.34167353526967775 0.9256109472756335 0 0.008165637588815378 -1.424199927547874e-06 -0.0014367208989347023 -0.0013921224512717472 -0.022038575192696683 -0.007890314735138347 10 50 20
0.0367199563879646 -0.14916058997417445 0.06988881942062032 0.15001698368807412 -0.4996805327538574 0.8531202895541667 0 0.008165586586612053 -1.932920540938093e-06 -0.0014370101468031797 -0.002035529819854701 -0.020312458798521234 -0.011539259247190925 10 50 30
0.036246169486923524 -0.1620787299018588 0.06720184038237306 0.17062241914700188 -0.17328496031147975 0.9699795210576894 0 0.00816567247637716 -8.722057200390846e-07 -0.0014365230417398359 -0.0007064411083704692 -0.023095060631699194 -0.004001622601091265 10 60 0
0.03554168171619957 -0.15923243580183621 0.0632064916961233 0.16279904249367114 -0.3416735352696774 0.9256109472756334 0 0.008165637588815378 -1.4241999275478727e-06 -0.0014367208989347023 -0.0013921224512717446 -0.02203857519269669 -0.00789031473513833 10 60 10
0.034933722966510775 -0.15572489553405713 0.059758586291935735 0.15001698368807415 -0.49968053275385704 0.8531202895541669 0 0.008165586586612053 -1.932920540938092e-06 -0.0014370101468031797 -0.0020355298198546984 -0.020312458798521244 -0.01153925924719091 10 60 20
0.034440765756824476 -0.15166268393465698 0.05696288703079232 0.13266461911898506 -0.6425049901008607 0.7547101398461135 0 0.008165521019443326 -2.3829103417969316e-06 -0.0014373819966951506 -0.002617113606804775 -0.01796915862235283 -0.014837584804705298 10 60 30
0.03358464716172381 -0.16391078138889606 0.052107597206961315 0.16279904249367116 -0.3416735352696771 0.9256109472756333 0 0.008165637588815378 -1.424199927547872e-06 -0.0014367208989347023 -0.001392122451271743 -0.0220385751926967 -0.007890314735138316 10 70 0
0.03297668841203502 -0.16040324112111698 0.048659691802773755 0.15001698368807415 -0.4996805327538569 0.8531202895541666 0 0.008165586586612053 -1.9329205409380912e-06 -0.0014370101468031797 -0.0020355298198546966 -0.020312458798521255 -0.011539259247190892 10 70 10
0.032483731202348716 -0.15634102952171683 0.04586399254163033 0.13266461911898508 -0.6425049901008604 0.7547101398461133 0 0.008165521019443326 -2.3829103417969308e-06 -0.0014373819966951506 -0.002617113606804773 -0.017969158622352842 -0.014837584804705282 10 70 20
0.03212075378803283 -0.15184757483456512 0.04380544533088881 0.11126919160311549 -0.7658072584468619 0.6333706407524136 0 0.008165442879534437 -2.7604966177311207e-06 -0.0014378251501398131 -0.0031192026830510924 -0.015079874654277245 -0.017685073454649678 10 70 30
0.030908316229167815 -0.16305347757204816 0.03692937024587595 0.15001698368807406 -0.4996805327538565 0.8531202895541664 0 0.008165586586612053 -1.9329205409380904e-06 -0.0014370101468031797 -0.0020355298198546944 -0.020312458798521258 -0.011539259247190884 10 80 0
0.03041535901948151 -0.158991265972648 0.034133670984732536 0.132664619118985 -0.6425049901008603 0.7547101398461129 0 0.008165521019443326 -2.3829103417969303e-06 -0.0014373819966951506 -0.0026171136068047704 -0.017969158622352845 -0.01483758480470527 10 80 10
0.030052381605165625 -0.15449781128549633 0.03207512377399101 0.11126919160311544 -0.7658072584468616 0.6333706407524137 0 0.008165442879534437 -2.76049661773112e-06 -0.0014378251501398131 -0.0031192026830510885 -0.01507987465427725 -0.017685073454649668 10 80 20
0.029830412871278716 -0.1497096448574644 0.0308162765289746 0.08648079037892638 -0.8658408607621262 0.4927886315522808 0 0.008165354541126981 -3.054206600814276e-06 -0.0014383261421439968 -0.0035265413260812356 -0.011732396325616202 -0.01999520569529429 10 80 30
0.05751024399924507 -0.15064924816369502 0.09105837539000296 0.3364216516200643 0.17401133575810315 0.9254947250016824 0 0.007792202842481729 2.9370998308232593e-07 -0.0028325573210457576 0.001394840883308713 -0.023092057305900495 0.00383473289216863 20 40 0
0.05587340151402245 -0.1493621766383398 0.08656118762264982 0.34163960812534444 0.00036879047936060516 0.939830942675636 0 0.007792202842481729 -2.9370998308398167e-07 -0.0028325573210457576 2.1737992609191524e-06 -0.023449814340072078 8.411525929601706e-06 20 40 10
0.05433786703381837 -0.14726361191200865 0.08234234131149512 0.3364654574195756 -0.17328496031148036 0.925615080446681 0 0.007792167954919947 -8.722057200387312e-07 -0.0028326531738339738 -0.0013905831529600816 -0.023095060631699183 -0.0038181567510860407 20 40 20
0.0529502969967959 -0.14441731781198608 0.07853002396686405 0.321056413453706 -0.34167353526967786 0.8832790800950708 0 0.0077920992398372935 -1.4241999275475186e-06 -0.002832841966971941 -0.002741111758130079 -0.02203857519269668 -0.007528703598118159 20 40 30
0.052798519545153196 -0.15761298906830729 0.07811301884569335 0.3416396081253444 0.0003687904793608049 0.9398309426756358 0 0.007792202842481729 -2.9370998308398114e-07 -0.0028325573210457576 2.1737992609221263e-06 -0.023449814340072084 8.411525929612304e-06 20 50 0
0.05126298506494911 -0.1555144243419761 0.07389417253453866 0.33646545741957556 -0.1732849603114802 0.9256150804466807 0 0.007792167954919947 -8.722057200387307e-07 -0.0028326531738339738 -0.00139058315296008 -0.023095060631699183 -0.0038181567510860302 20 50 10
0.04987541502792664 -0.15266813024195353 0.07008185518990759 0.32105641345370606 -0.34167353526967775 0.8832790800950708 0 0.0077920992398372935 -1.4241999275475182e-06 -0.002832841966971941 -0.002741111758130076 -0.022038575192696683 -0.007528703598118146 20 50 20
0.04867797004751639 -0.14916058997417445 0.06679190214519112 0.2958806722312862 -0.4996805327538574 0.8141092995684396 0 0.007791998785106783 -1.932920540937737e-06 -0.0028331179640756956 -0.004008376887981429 -0.020312458798521234 -0.011010485926846973 20 50 30
0.04774479202067464 -0.1620787299018588 0.06422801658811218 0.33646545741957556 -0.17328496031147975 0.9256150804466806 0 0.007792167954919947 -8.722057200387289e-07 -0.0028326531738339738 -0.0013905831529600742 -0.023095060631699194 -0.0038181567510860155 20 60 0
0.04635722198365216 -0.15923243580183621 0.06041569924348112 0.32105641345370606 -0.3416735352696774 0.8832790800950706 0 0.0077920992398372935 -1.4241999275475171e-06 -0.0028328419669719413 -0.002741111758130071 -0.02203857519269669 -0.007528703598118133 20 60 10
0.0451597770032419 -0.15572489553405713 0.05712574619876465 0.2958806722312863 -0.49968053275385704 0.8141092995684395 0 0.007791998785106783 -1.9329205409377363e-06 -0.0028331179640756956 -0.004008376887981424 -0.020312458798521244 -0.011010485926846955 20 60 20
0.04418884083923723 -0.15166268393465698 0.05445812101242991 0.2617031859098197 -0.6425049901008607 0.7202074276464908 0 0.007791869642994571 -2.3829103417965754e-06 -0.002833472779112901 -0.005153873332810695 -0.01796915862235283 -0.014157711543080929 20 60 30
0.04250261637933112 -0.16391078138889606 0.049825257384705855 0.32105641345370606 -0.3416735352696771 0.8832790800950706 0 0.0077920992398372935 -1.4241999275475163e-06 -0.0028328419669719413 -0.002741111758130067 -0.0220385751926967 -0.007528703598118121 20 70 0
0.04130517139892086 -0.16040324112111698 0.04653530433998938 0.2958806722312863 -0.4996805327538569 0.8141092995684395 0 0.007791998785106783 -1.9329205409377355e-06 -0.0028331179640756956 -0.00400837688798142 -0.020312458798521255 -0.011010485926846943 20 70 10
0.04033423523491619 -0.15634102952171683 0.043867679153654644 0.2617031859098197 -0.6425049901008604 0.7202074276464909 0 0.007791869642994571 -2.3829103417965746e-06 -0.002833472779112901 -0.005153873332810691 -0.017969158622352842 -0.014157711543080913 20 70 20
0.03961930929134297 -0.15184757483456512 0.04190343626710494 0.21956242011654165 -0.7658072584468619 0.6044266251909336 0 0.007791715737418385 -2.7604966177307645e-06 -0.0028338956312081967 -0.006142795762790915 -0.015079874654277245 -0.01687475358904378 20 70 30
0.037231273475316046 -0.16305347757204816 0.03534236178572205 0.2958806722312862 -0.4996805327538565 0.8141092995684391 0 0.007791998785106783 -1.9329205409377346e-06 -0.0028331179640756956 -0.004008376887981416 -0.020312458798521258 -0.011010485926846935 20 80 0
0.03626033731131137 -0.158991265972648 0.03267473659938731 0.26170318590981967 -0.6425049901008603 0.7202074276464907 0 0.007791869642994571 -2.382910341796574e-06 -0.002833472779112901 -0.005153873332810688 -0.017969158622352845 -0.014157711543080903 20 80 10
0.03554541136773815 -0.15449781128549633 0.030710493712837614 0.21956242011654156 -0.7658072584468616 0.6044266251909332 0 0.007791715737418385 -2.7604966177307637e-06 -0.0028338956312081967 -0.00614279576279091 -0.01507987465427725 -0.01687475358904376 20 80 20
0.03510821830762188 -0.1497096448574644 0.029509315652225893 0.1707388006958242 -0.8658408607621262 0.47028483329646603 0 0.007791541744721281 -3.0542066008139204e-06 -0.0028343736722146414 -0.006945096270306031 -0.011732396325616202 -0.019079056117058547 20 80 30
0.07282846129056043 -0.15064924816369502 0.08402964943479478 0.4920211232335105 0.17401133575810315 0.8530153738220351 0 0.007181953355383054 2.937099830826916e-07 -0.0041426262342253795 0.0020395444946653364 -0.023092057305900495 0.0035342631054167024 30 40 0
0.07043555766022655 -0.1493621766383398 0.07988501876944046 0.4996492653285093 0.0003687904793606051 0.866227703497928 0 0.007181953355383054 -2.9370998308361607e-07 -0.0041426262342253795 3.6014205147194186e-06 -0.023449814340072078 7.906259669862881e-06 30 40 10
0.06819075642531514 -0.14726361191200865 0.07599690897768054 0.4920851630281924 -0.17328496031148036 0.8531262940001305 0 0.00718190235317973 -8.722057200383656e-07 -0.004142714572632836 -0.0020324730321160276 -0.023095060631699183 -0.0035186781402795834 30 40 20
0.06616226473542475 -0.14441731781198608 0.07248345830805913 0.46955864775333445 -0.34167353526967786 0.8141092250266002 0 0.007181801898449219 -1.424199927547153e-06 -0.004142888565329941 -0.004006813771287106 -0.02203857519269668 -0.006938336611976986 30 40 30
0.0659403809449455 -0.15761298906830729 0.07209914430957313 0.4996492653285092 0.0003687904793608048 0.8662277034979279 0 0.007181953355383054 -2.937099830836155e-07 -0.0041426262342253795 3.6014205147232294e-06 -0.023449814340072084 7.906259669871804e-06 30 50 0
0.06369557971003409 -0.1555144243419761 0.06821103451781321 0.4920851630281923 -0.1732849603114802 0.8531262940001303 0 0.00718190235317973 -8.72205720038365e-07 -0.004142714572632836 -0.0020324730321160233 -0.023095060631699183 -0.0035186781402795743 30 50 10
0.06166708802014371 -0.15266813024195353 0.06469758384819181 0.46955864775333445 -0.34167353526967775 0.8141092250266001 0 0.007181801898449219 -1.4241999275471525e-06 -0.004142888565329941 -0.004006813771287101 -0.022038575192696683 -0.006938336611976977 30 50 20
0.05991654056880535 -0.14916058997417445 0.06166554672141357 0.43275417627159524 -0.4996805327538574 0.7503620104745081 0 0.007181655043457678 -1.9329205409373717e-06 -0.004143142925636636 -0.005859431452703417 -0.020312458798521234 -0.010147164563190484 30 50 30
0.05855232555829763 -0.1620787299018588 0.0593026570107661 0.4920851630281924 -0.17328496031147975 0.8531262940001304 0 0.00718190235317973 -8.722057200383632e-07 -0.004142714572632836 -0.0020324730321160164 -0.023095060631699194 -0.003518678140279563 30 60 0
0.056523833868407244 -0.15923243580183621 0.055789206341144704 0.4695586477533345 -0.3416735352696774 0.8141092250266002 0 0.007181801898449219 -1.4241999275471514e-06 -0.004142888565329941 -0.004006813771287095 -0.02203857519269669 -0.006938336611976963 30 60 10
0.054773286417068884 -0.15572489553405713 0.052757169214366455 0.43275417627159546 -0.49968053275385704 0.7503620104745083 0 0.007181655043457678 -1.932920540937371e-06 -0.004143142925636636 -0.0058594314527034095 -0.020312458798521244 -0.010147164563190474 30 60 20
0.05335387270277171 -0.15166268393465698 0.050298672544243694 0.38279003382498655 -0.6425049901008607 0.663821577200373 0 0.00718146625031971 -2.3829103417962103e-06 -0.004143469924943715 -0.0075340352255849116 -0.01796915862235283 -0.013047663380367766 30 60 30
0.05088877745500369 -0.16391078138889606 0.046029002329612864 0.4695586477533344 -0.3416735352696771 0.8141092250266001 0 0.007181801898449219 -1.4241999275471508e-06 -0.004142888565329941 -0.004006813771287089 -0.0220385751926967 -0.006938336611976956 30 70 0
0.04913823000366534 -0.16040324112111698 0.04299696520283462 0.4327541762715953 -0.4996805327538569 0.7503620104745081 0 0.007181655043457678 -1.93292054093737e-06 -0.004143142925636636 -0.005859431452703403 -0.020312458798521255 -0.010147164563190468 30 70 10
0.04771881628936816 -0.15634102952171683 0.04053846853271187 0.3827900338249865 -0.6425049901008604 0.6638215772003732 0 0.00718146625031971 -2.382910341796209e-06 -0.004143469924943715 -0.007534035225584904 -0.017969158622352842 -0.013047663380367756 30 70 20
0.0466736644795631 -0.15184757483456512 0.03872821249650693 0.3211843555986721 -0.7658072584468619 0.5571174124776567 0 0.007181241255419281 -2.760496617730399e-06 -0.0041438596275427024 -0.00897974310168298 -0.015079874654277245 -0.015551702874672117 30 70 30
0.04318258966623981 -0.16305347757204816 0.03268149354680697 0.43275417627159524 -0.4996805327538565 0.750362010474508 0 0.007181655043457678 -1.932920540937369e-06 -0.004143142925636636 -0.005859431452703397 -0.020312458798521258 -0.010147164563190455 30 80 0
0.041763175951942635 -0.158991265972648 0.03022299687668421 0.38279003382498644 -0.6425049901008603 0.6638215772003729 0 0.00718146625031971 -2.3829103417962087e-06 -0.004143469924943715 -0.0075340352255848985 -0.017969158622352845 -0.013047663380367742 30 80 10
0.04071802414213758 -0.15449781128549633 0.028412740840479282 0.32118435559867214 -0.7658072584468616 0.5571174124776567 0 0.007181241255419281 -2.760496617730398e-06 -0.0041438596275427024 -0.008979743101682973 -0.01507987465427725 -0.015551702874672103 30 80 20
0.04007889064569323 -0.1497096448574644 0.027305729151818513 0.24980899895158137 -0.8658408607621262 0.4334916683565465 0 0.007180986895112585 -3.054206600813555e-06 -0.004144300192517328 -0.010152627978745868 -0.011732396325616202 -0.017583199073174214 30 80 30
