# .PCD v0.7 - Point Cloud Data file format
VERSION 0.7
FIELDS x y z normal_x normal_y normal_z curvature xx xy xz zx zy zz a0 a1 a2
SIZE 4 4 4 4 4 4 4 4 4 4 4 4 4 4 4 4
TYPE F F F F F F F F F F F F F F F F
COUNT 1 1 1 1 1 1 1 1 1 1 1 1 1 1 1 1
WIDTH 80
HEIGHT 1
VIEWPOINT 0 0 0 1 0 0 0
POINTS 80
DATA ascii
-0.02559416221585141 -0.15064924816369502 0.09668604172691321 -0.0004048949922435269 0.17401133575810315 0.9847435451653171 0 0.008291067171669303 2.9370998308163507e-07 3.3571204684841053e-06 -8.342081794770322e-07 -0.023092057305900495 0.004080533880281614 0 40 0
-0.02559416221585141 -0.1493621766383398 0.09190023446624541 -0.0004048949922435597 0.00036879047936060516 0.9999998293553148 0 0.008291067171669303 -2.937099830846726e-07 3.357120468484106e-06 -8.342081794768486e-07 -0.023449814340072078 8.64773198037965e-06 0 40 10
-0.025594162215851406 -0.14726361191200862 0.0874106319964226 -0.0004048949922435907 -0.17328496031148036 0.9848716247546809 0 0.008291067171669303 -8.722057200394221e-07 3.255116061834158e-06 -8.342081794765342e-07 -0.023095060631699183 -0.004063501173281114 0 40 20
-0.025594162215851406 -0.14441731781198605 0.08335364861664182 -0.00040489499224361886 -0.34167353526967786 0.9398185942049653 0 0.008291067171669303 -1.4241999275482094e-06 3.0542066008135994e-06 -8.342081794760983e-07 -0.02203857519269668 -0.008012182651623276 0 40 30
-0.025594162215851413 -0.15761298906830729 0.08290988103568335 -0.0004048949922435597 0.0003687904793608049 0.9999998293553146 0 0.008291067171669303 -2.93709983084672e-07 3.3571204684841057e-06 -8.342081794768486e-07 -0.023449814340072084 8.64773198038727e-06 0 50 0
-0.02559416221585141 -0.1555144243419761 0.07842027856586052 -0.0004048949922435907 -0.1732849603114802 0.9848716247546808 0 0.008291067171669303 -8.722057200394214e-07 3.255116061834158e-06 -8.342081794765342e-07 -0.023095060631699183 -0.00406350117328111 0 50 10
-0.02559416221585141 -0.15266813024195353 0.07436329518607976 -0.00040489499224361886 -0.34167353526967775 0.9398185942049653 0 0.008291067171669303 -1.424199927548209e-06 3.0542066008135994e-06 -8.342081794760983e-07 -0.022038575192696683 -0.008012182651623265 0 50 20
-0.02559416221585141 -0.14916058997417445 0.07086220028340304 -0.0004048949922436434 -0.4996805327538574 0.866209651241487 0 0.008291067171669303 -1.932920540938428e-06 2.760496617730447e-06 -8.342081794755544e-07 -0.020312458798521234 -0.011717418014455899 0 50 30
-0.02559416221585141 -0.1620787299018588 0.06813377026238761 -0.0004048949922435907 -0.17328496031147975 0.9848716247546808 0 0.008291067171669303 -8.722057200394196e-07 3.255116061834158e-06 -8.342081794765342e-07 -0.023095060631699194 -0.004063501173281091 0 60 0
-0.02559416221585141 -0.15923243580183621 0.06407678688260683 -0.00040489499224361886 -0.3416735352696774 0.939818594204965 0 0.008291067171669303 -1.4241999275482079e-06 3.0542066008135994e-06 -8.342081794760983e-07 -0.02203857519269669 -0.00801218265162325 0 60 10
-0.02559416221585141 -0.15572489553405713 0.06057569197993011 -0.0004048949922436434 -0.49968053275385704 0.8662096512414871 0 0.008291067171669303 -1.932920540938427e-06 2.7604966177304477e-06 -8.342081794755544e-07 -0.020312458798521244 -0.011717418014455881 0 60 20
-0.02559416221585141 -0.15166268393465698 0.05773686455133577 -0.0004048949922436635 -0.6425049901008605 0.7662813663482694 0 0.008291067171669303 -2.382910341797266e-06 2.3829103417962603e-06 -8.342081794749188e-07 -0.01796915862235283 -0.015066625560218882 0 60 30
-0.02559416221585141 -0.16391078138889603 0.05280667405579971 -0.00040489499224361886 -0.3416735352696771 0.9398185942049649 0 0.008291067171669303 -1.4241999275482072e-06 3.054206600813599e-06 -8.342081794760983e-07 -0.0220385751926967 -0.00801218265162324 0 70 0
-0.02559416221585141 -0.16040324112111695 0.04930557915312299 -0.0004048949922436434 -0.4996805327538569 0.8662096512414869 0 0.008291067171669303 -1.9329205409384262e-06 2.760496617730447e-06 -8.342081794755544e-07 -0.020312458798521255 -0.011717418014455873 0 70 10
-0.02559416221585141 -0.1563410295217168 0.046466751724528646 -0.0004048949922436635 -0.6425049901008604 0.7662813663482694 0 0.008291067171669303 -2.382910341797266e-06 2.3829103417962603e-06 -8.342081794749188e-07 -0.017969158622352842 -0.01506662556021887 0 70 20
-0.025594162215851406 -0.1518475748345651 0.044376448104918524 -0.0004048949922436786 -0.7658072584468619 0.6430700098956404 0 0.008291067171669303 -2.760496617731456e-06 1.9329205409374234e-06 -8.34208179474211e-07 -0.015079874654277245 -0.017958041312415022 0 70 30
-0.025594162215851406 -0.16305347757204813 0.03739429847827193 -0.0004048949922436434 -0.4996805327538565 0.8662096512414867 0 0.008291067171669303 -1.9329205409384254e-06 2.7604966177304465e-06 -8.342081794755544e-07 -0.020312458798521258 -0.011717418014455862 0 80 0
-0.025594162215851406 -0.15899126597264798 0.03455547104967759 -0.0004048949922436635 -0.64250499010086 0.7662813663482692 0 0.008291067171669303 -2.382910341797265e-06 2.3829103417962595e-06 -8.342081794749188e-07 -0.017969158622352852 -0.01506662556021886 0 80 10
-0.025594162215851403 -0.1544978112854963 0.03246516743006747 -0.0004048949922436786 -0.7658072584468616 0.6430700098956404 0 0.008291067171669303 -2.760496617731455e-06 1.9329205409374234e-06 -8.34208179474211e-07 -0.01507987465427725 -0.01795804131241501 0 80 20
-0.025594162215851403 -0.14970964485746438 0.03118690043717876 -0.00040489499224368824 -0.8658408607621262 0.5003192966014589 0 0.008291067171669303 -3.0542066008146116e-06 1.4241999275472067e-06 -8.342081794734524e-07 -0.011732396325616202 -0.020303811066540806 0 80 30
-0.04237449050842465 -0.15064924816369502 0.09511398831470484 -0.17139766581474705 0.17401133575810315 0.969712768729982 0 0.008164524273553369 2.937099830813308e-07 0.0014430348235396438 -0.0007093988069018462 -0.023092057305900495 0.004018396543000161 10 40 0
-0.04154344379894452 -0.1493621766383398 0.09040088821997709 -0.17404689176230895 0.0003687904793606052 0.9847372756824493 0 0.008164524273553369 -2.9370998308497677e-07 0.0014430348235396438 -2.3231975821204303e-06 -0.023449814340072078 8.371494770088264e-06 10 40 10
-0.04076383251161084 -0.14726361191200862 0.08597949289975282 -0.1714199066020365 -0.1732849603114803 0.9698389025025902 0 0.008164541986432697 -8.722057200397257e-07 0.0014429343688091335 0.0007047980390049239 -0.023095060631699187 -0.004001912318551607 10 40 20
-0.04005934474088688 -0.14441731781198605 0.08198414421350304 -0.16359652994870583 -0.34167353526967775 0.9254703287205343 0 0.00816457687399448 -1.4241999275485137e-06 0.001442736511614267 0.0013904793819062005 -0.02203857519269668 -0.007890604452598673 10 40 30
-0.039982285309145785 -0.15761298906830729 0.08154711845923966 -0.17404689176230895 0.00036879047936080493 0.9847372756824495 0 0.008164524273553369 -2.9370998308497624e-07 0.0014430348235396438 -2.3231975821218245e-06 -0.023449814340072084 8.371494770094773e-06 10 50 0
-0.0392026740218121 -0.1555144243419761 0.07712572313901538 -0.17141990660203643 -0.1732849603114801 0.9698389025025903 0 0.008164541986432697 -8.722057200397255e-07 0.0014429343688091335 0.000704798039004922 -0.023095060631699187 -0.004001912318551603 10 50 10
-0.03849818625108814 -0.15266813024195353 0.0731303744527656 -0.16359652994870583 -0.3416735352696777 0.9254703287205344 0 0.00816457687399448 -1.4241999275485132e-06 0.001442736511614267 0.0013904793819061983 -0.022038575192696686 -0.007890604452598666 10 50 20
-0.03789022750139935 -0.14916058997417445 0.06968246904857806 -0.15081447114310886 -0.4996805327538572 0.8529796709990676 0 0.008164627876197804 -1.9329205409387316e-06 0.0014424472637457897 0.0020338867504891534 -0.02031245879852123 -0.011539548964651244 10 50 30
-0.03741644060035828 -0.16207872990185876 0.0669954900103308 -0.1714199066020365 -0.17328496031147958 0.9698389025025902 0 0.008164541986432697 -8.722057200397234e-07 0.0014429343688091335 0.00070479803900492 -0.023095060631699197 -0.004001912318551585 10 60 0
-0.036711952829634326 -0.15923243580183621 0.06300014132408102 -0.16359652994870583 -0.34167353526967736 0.9254703287205343 0 0.00816457687399448 -1.4241999275485122e-06 0.001442736511614267 0.001390479381906196 -0.02203857519269669 -0.007890604452598649 10 60 10
-0.03610399407994553 -0.1557248955340571 0.05955223591989346 -0.1508144711431089 -0.4996805327538569 0.8529796709990677 0 0.008164627876197804 -1.9329205409387307e-06 0.0014424472637457897 0.0020338867504891512 -0.020312458798521244 -0.011539548964651229 10 60 20
-0.035611036870259224 -0.15166268393465696 0.056756536658750044 -0.1334621065740198 -0.6425049901008605 0.7545695212910143 0 0.008164693443366532 -2.3829103417975703e-06 0.0014420754138538187 0.002615470537439229 -0.01796915862235283 -0.01483787452216562 10 60 30
-0.03475491827515858 -0.16391078138889603 0.051901246834919035 -0.1635965299487058 -0.341673535269677 0.9254703287205341 0 0.00816457687399448 -1.4241999275485107e-06 0.001442736511614267 0.0013904793819061942 -0.0220385751926967 -0.007890604452598635 10 70 0
-0.03414695952546979 -0.16040324112111695 0.048453341430731475 -0.15081447114310884 -0.4996805327538567 0.8529796709990675 0 0.008164627876197804 -1.9329205409387303e-06 0.0014424472637457897 0.002033886750489149 -0.020312458798521255 -0.011539548964651213 10 70 10
-0.03365400231578348 -0.1563410295217168 0.045657642169588064 -0.1334621065740198 -0.6425049901008604 0.7545695212910142 0 0.008164693443366532 -2.3829103417975703e-06 0.0014420754138538187 0.002615470537439227 -0.017969158622352842 -0.014837874522165605 10 70 20
-0.0332910249014676 -0.15184757483456512 0.043599094958846535 -0.11206667905815021 -0.7658072584468618 0.6332300221973144 0 0.00816477158327542 -2.7604966177317602e-06 0.0014416322604091565 0.0031175596136855453 -0.015079874654277245 -0.01768536317211 10 70 30
-0.03207858734260258 -0.16305347757204813 0.03672301987383368 -0.15081447114310878 -0.4996805327538563 0.8529796709990672 0 0.008164627876197804 -1.932920540938729e-06 0.0014424472637457897 0.002033886750489147 -0.02031245879852126 -0.011539548964651203 10 80 0
-0.03158563013291627 -0.15899126597264798 0.033927320612690264 -0.13346210657401975 -0.64250499010086 0.7545695212910137 0 0.008164693443366532 -2.3829103417975694e-06 0.0014420754138538187 0.0026154705374392246 -0.017969158622352852 -0.014837874522165593 10 80 10
-0.031222652718600384 -0.1544978112854963 0.03186877340194873 -0.1120666790581502 -0.7658072584468616 0.6332300221973145 0 0.00816477158327542 -2.76049661773176e-06 0.0014416322604091565 0.0031175596136855427 -0.015079874654277252 -0.01768536317210999 10 80 20
-0.03100068398471347 -0.14970964485746438 0.030609926156932327 -0.08727827783396114 -0.8658408607621262 0.49264801299718175 0 0.008164859921682878 -3.054206600814916e-06 0.0014411312684049727 0.0035248982567156915 -0.011732396325616203 -0.01999549541275461 10 80 30
-0.05862690369881582 -0.15064924816369502 0.09065194449755459 -0.33718260529287325 0.1740113357581033 0.9252177605151245 0 0.0077899064368341445 2.937099830810672e-07 0.0028388666437084054 -0.0013964086818496204 -0.023092057305900495 0.0038341622601664165 20 40 0
-0.05699006121359319 -0.1493621766383398 0.08615475673020145 -0.3424005617981534 0.0003687904793606052 0.9395539781890782 0 0.0077899064368341445 -2.9370998308524094e-07 0.0028388666437084054 -3.7415978018265194e-06 -0.023449814340072078 7.84089392738842e-06 20 40 10
-0.05545452673338912 -0.14726361191200862 0.08193591041904674 -0.33722641109238466 -0.1732849603114803 0.925338115960123 0 0.007789941324395927 -8.722057200399899e-07 0.0028387707909201887 0.0013890153544191745 -0.023095060631699187 -0.0038187273830882548 20 40 20
-0.05406695669636664 -0.14441731781198605 0.07812359307441569 -0.32181736712651515 -0.34167353526967775 0.8830021156085129 0 0.007790010039478581 -1.424199927548778e-06 0.0028385819977822216 0.0027395439595891734 -0.02203857519269668 -0.007529274230120373 20 40 30
-0.05391517924472394 -0.15761298906830723 0.07770658795324499 -0.34240056179815337 0.00036879047936080493 0.9395539781890779 0 0.0077899064368341445 -2.937099830852404e-07 0.0028388666437084054 -3.7415978018294937e-06 -0.023449814340072084 7.840893927399017e-06 20 50 0
-0.05237964476451986 -0.15551442434197607 0.07348774164209029 -0.33722641109238466 -0.1732849603114801 0.9253381159601228 0 0.007789941324395927 -8.722057200399897e-07 0.0028387707909201887 0.0013890153544191715 -0.023095060631699187 -0.0038187273830882443 20 50 10
-0.05099207472749739 -0.1526681302419535 0.06967542429745922 -0.3218173671265152 -0.3416735352696777 0.8830021156085129 0 0.007790010039478581 -1.4241999275487775e-06 0.0028385819977822216 0.0027395439595891695 -0.022038575192696686 -0.00752927423012036 20 50 20
-0.04979462974708712 -0.14916058997417442 0.06638547125274274 -0.29664162590409543 -0.4996805327538572 0.8138323350818817 0 0.0077901104942090914 -1.932920540938996e-06 0.0028383060006784673 0.004006809089440524 -0.02031245879852123 -0.011011056558849186 20 50 30
-0.04886145172024537 -0.16207872990185876 0.06382158569566382 -0.33722641109238466 -0.17328496031147958 0.9253381159601227 0 0.007789941324395927 -8.722057200399876e-07 0.0028387707909201887 0.0013890153544191674 -0.023095060631699197 -0.003818727383088229 20 60 0
-0.0474738816832229 -0.15923243580183621 0.06000926835103275 -0.32181736712651515 -0.34167353526967736 0.8830021156085127 0 0.007790010039478581 -1.4241999275487765e-06 0.0028385819977822216 0.0027395439595891647 -0.02203857519269669 -0.007529274230120347 20 60 10
-0.04627643670281263 -0.1557248955340571 0.05671931530631628 -0.29664162590409543 -0.4996805327538569 0.8138323350818816 0 0.0077901104942090914 -1.932920540938995e-06 0.0028383060006784673 0.004006809089440519 -0.020312458798521244 -0.01101105655884917 20 60 20
-0.045305500538807955 -0.15166268393465696 0.05405169011998154 -0.26246413958262893 -0.6425049901008605 0.7199304631599329 0 0.007790239636321304 -2.382910341797834e-06 0.0028379511856412615 0.005152305534269794 -0.01796915862235283 -0.014158282175083144 20 60 30
-0.04361927607890187 -0.16391078138889603 0.049418826492257484 -0.3218173671265151 -0.341673535269677 0.8830021156085127 0 0.007790010039478581 -1.424199927548775e-06 0.0028385819977822216 0.0027395439595891604 -0.0220385751926967 -0.007529274230120337 20 70 0
-0.04242183109849161 -0.16040324112111695 0.046128873447541005 -0.2966416259040954 -0.4996805327538567 0.8138323350818816 0 0.0077901104942090914 -1.9329205409389946e-06 0.0028383060006784673 0.004006809089440514 -0.020312458798521255 -0.01101105655884916 20 70 10
-0.041450894934486934 -0.1563410295217168 0.04346124826120627 -0.2624641395826289 -0.6425049901008604 0.719930463159933 0 0.007790239636321304 -2.382910341797834e-06 0.0028379511856412615 0.005152305534269787 -0.017969158622352842 -0.014158282175083133 20 70 20
-0.04073596899091372 -0.15184757483456512 0.041497005374656566 -0.22032337378935068 -0.7658072584468618 0.6041496607043755 0 0.007790393541897489 -2.760496617732024e-06 0.0028375283335459658 0.006141227964250013 -0.015079874654277245 -0.016875324221045995 20 70 30
-0.03834793317488679 -0.16305347757204813 0.034935930893273674 -0.29664162590409526 -0.4996805327538563 0.8138323350818812 0 0.0077901104942090914 -1.9329205409389933e-06 0.0028383060006784673 0.00400680908944051 -0.02031245879852126 -0.01101105655884915 20 80 0
-0.03737699701088211 -0.15899126597264798 0.032268305706938935 -0.2624641395826288 -0.64250499010086 0.7199304631599328 0 0.007790239636321304 -2.3829103417978333e-06 0.0028379511856412615 0.005152305534269783 -0.017969158622352852 -0.014158282175083118 20 80 10
-0.03666207106730889 -0.1544978112854963 0.030304062820389235 -0.22032337378935068 -0.7658072584468616 0.6041496607043753 0 0.007790393541897489 -2.7604966177320236e-06 0.0028375283335459658 0.006141227964250009 -0.015079874654277252 -0.016875324221045977 20 80 20
-0.036224878007192624 -0.14970964485746438 0.029102884759777514 -0.17149975436863335 -0.8658408607621262 0.47000786880990814 0 0.007790567534594593 -3.05420660081518e-06 0.002837050292539521 0.006943528471765131 -0.011732396325616203 -0.01907962674906076 20 80 30
-0.0738575804363528 -0.15064924816369502 0.0834354872189434 -0.4927224219318064 0.1740113357581033 0.8526104788297915 0 0.007178596234914569 2.937099830808511e-07 0.004148440937443923 -0.002040989385616282 -0.023092057305900495 0.0035334288972372293 30 40 0
-0.0714646768060189 -0.1493621766383398 0.07929085655358908 -0.5003505640268053 0.0003687904793606052 0.8658228085056843 0 0.007178596234914569 -2.9370998308545704e-07 0.004148440937443923 -5.0463114656652485e-06 -0.023449814340072078 7.072051490389408e-06 30 40 10
-0.06921987557110748 -0.14726361191200862 0.07540274676182915 -0.49278646172648843 -0.1732849603114803 0.852721399007887 0 0.0071786472371178954 -8.72205720040206e-07 0.004148352599036466 0.002031028141165082 -0.023095060631699187 -0.0035195123484590574 30 40 20
-0.06719138388121709 -0.14441731781198608 0.07188929609220776 -0.47025994645163055 -0.34167353526967775 0.8137043300343565 0 0.007178747691848405 -1.4241999275489935e-06 0.004148178606339362 0.004005368880336163 -0.022038575192696683 -0.006939170820156458 30 40 30
-0.06696950009073786 -0.15761298906830723 0.07150498209372176 -0.5003505640268053 0.00036879047936080493 0.8658228085056843 0 0.007178596234914569 -2.9370998308545646e-07 0.004148440937443923 -5.046311465668038e-06 -0.023449814340072084 7.072051490398331e-06 30 50 0
-0.06472469885582645 -0.15551442434197607 0.06761687230196183 -0.4927864617264885 -0.1732849603114801 0.8527213990078868 0 0.0071786472371178954 -8.722057200402058e-07 0.004148352599036466 0.00203102814116508 -0.023095060631699187 -0.0035195123484590496 30 50 10
-0.06269620716593607 -0.1526681302419535 0.06410342163234042 -0.47025994645163066 -0.3416735352696776 0.8137043300343566 0 0.007178747691848405 -1.4241999275489935e-06 0.004148178606339362 0.004005368880336158 -0.022038575192696683 -0.0069391708201564485 30 50 20
-0.06094565971459771 -0.14916058997417442 0.06107138450556218 -0.43345547496989156 -0.4996805327538572 0.7499571154822645 0 0.0071788945468399465 -1.932920540939212e-06 0.004147924246032666 0.005857986561752476 -0.02031245879852123 -0.01014799877136996 30 50 30
-0.05958144470408999 -0.16207872990185876 0.0587084947949147 -0.4927864617264885 -0.17328496031147958 0.8527213990078869 0 0.0071786472371178954 -8.722057200402037e-07 0.004148352599036466 0.0020310281411650703 -0.023095060631699197 -0.003519512348459036 30 60 0
-0.05755295301419961 -0.15923243580183621 0.05519504412529331 -0.4702599464516306 -0.34167353526967714 0.8137043300343567 0 0.007178747691848405 -1.424199927548992e-06 0.004148178606339362 0.00400536888033615 -0.02203857519269669 -0.0069391708201564355 30 60 10
-0.05580240556286124 -0.1557248955340571 0.05216300699851506 -0.4334554749698916 -0.4996805327538569 0.7499571154822648 0 0.0071788945468399465 -1.932920540939211e-06 0.004147924246032666 0.005857986561752468 -0.020312458798521244 -0.010147998771369945 30 60 20
-0.05438299184856407 -0.15166268393465696 0.04970451032839231 -0.38349133252328277 -0.6425049901008605 0.6634166822081295 0 0.007179083339977914 -2.38291034179805e-06 0.004147597246725587 0.007532590334633967 -0.01796915862235283 -0.01304849758854724 30 60 30
-0.05191789660079605 -0.16391078138889603 0.04543484011376147 -0.4702599464516306 -0.3416735352696769 0.8137043300343565 0 0.007178747691848405 -1.424199927548991e-06 0.004148178606339362 0.004005368880336145 -0.022038575192696704 -0.00693917082015643 30 70 0
-0.05016734914945769 -0.16040324112111695 0.04240280298698323 -0.4334554749698916 -0.4996805327538567 0.7499571154822645 0 0.0071788945468399465 -1.9329205409392106e-06 0.004147924246032666 0.005857986561752461 -0.020312458798521255 -0.010147998771369938 30 70 10
-0.04874793543516051 -0.1563410295217168 0.03994430631686047 -0.3834913325232828 -0.6425049901008604 0.6634166822081294 0 0.007179083339977914 -2.38291034179805e-06 0.004147597246725587 0.007532590334633962 -0.017969158622352842 -0.01304849758854723 30 70 20
-0.047702783625355454 -0.15184757483456512 0.03813405028065554 -0.32188565429696847 -0.7658072584468618 0.5567125174854131 0 0.007179308334878343 -2.76049661773224e-06 0.0041472075441266 0.008978298210732039 -0.015079874654277245 -0.015552537082851594 30 70 30
-0.044211708812032166 -0.16305347757204813 0.03208733133095558 -0.4334554749698914 -0.4996805327538563 0.7499571154822644 0 0.0071788945468399465 -1.9329205409392093e-06 0.004147924246032666 0.005857986561752457 -0.02031245879852126 -0.01014799877136993 30 80 0
-0.04279229509773499 -0.15899126597264798 0.029628834660832822 -0.38349133252328266 -0.64250499010086 0.6634166822081292 0 0.007179083339977914 -2.3829103417980493e-06 0.004147597246725587 0.007532590334633958 -0.017969158622352852 -0.013048497588547219 30 80 10
-0.04174714328792993 -0.1544978112854963 0.027818578624627895 -0.3218856542969684 -0.7658072584468616 0.5567125174854131 0 0.007179308334878343 -2.7604966177322396e-06 0.0041472075441266 0.008978298210732033 -0.015079874654277252 -0.015552537082851578 30 80 20
-0.04110800979148557 -0.14970964485746438 0.02671156693596713 -0.25051029764987764 -0.8658408607621261 0.43308677336430285 0 0.0071795626951850385 -3.054206600815396e-06 0.004146766979151975 0.010151183087794929 -0.011732396325616207 -0.01758403328135369 30 80 30
